VERSION .7
FIELDS x y z
SIZE 4 4 4
TYPE F F F
COUNT 1 1 1
WIDTH 137
HEIGHT 1
VIEWPOINT 0 0 0 1 0 0 0
POINTS 137
DATA ascii
0.05443838 0.02331288 0.03248968
0.01864839 0.007000005 0.01877637
-0.0682575 0.00700001 -0.006639019
-0.03478467 0.007000014 0.05635936
0.09186786 0.0127381 -0.004334681
-0.01719758 0.007000014 0.05366193
-0.06053212 0.02400001 -0.0270755
0.0589176 0.006999999 0.01949615
-0.0213024 0.007000007 0.008169509
0.007005367 0.00700001 0.0512223
-0.02920929 0.01956978 0.06742899
0.06547695 0.024 0.02691533
0.005082842 0.007000014 0.07195282
-0.07102127 0.01460247 -0.01842083
0.04249301 0.007000007 0.05694704
-0.04264687 0.01788754 0.04472099
-0.04755137 0.00700001 0.0003015958
-0.03251982 0.01967898 -0.05037417
-0.06300625 0.02400002 0.01171178
0.04705025 0.009494923 -0.05633295
-0.008264983 0.00700001 0.04805955
0.06562252 0.008847378 -0.03283689
-0.02016943 0.0202048 -0.07059028
0.0565094 0.024 0.01921481
0.05922414 0.024 -0.03054293
-0.05589075 0.007000014 0.02389038
0.02343245 0.006999999 -0.05862786
0.006195873 0.02400001 0.06589697
0.006048182 0.007000001 -0.03721457
-0.04695372 0.02607735 0.03396343
0.05103917 0.007000007 0.04018958
0.05241444 0.01549699 0.05147336
-0.06839789 0.01630964 0.0266156
-0.002877916 0.007000003 -0.0253594
0.05485271 0.01179855 -0.0487211
0.07130623 0.02267174 -0.01726471
0.1086073 0.01745854 -0.004716828
0.02821784 0.007000005 0.01190126
0.03103543 0.007000001 -0.003274001
-0.04389612 0.0118784 -0.05884694
-0.0138627 0.007000003 -0.04631062
-0.0178408 0.02400001 0.06808976
0.07038151 0.006999999 -0.009440854
-0.02753644 0.009345874 0.06803092
0.03248969 0.02266118 0.05594706
-0.004007351 0.007000003 -0.05941978
-0.05606272 0.00700001 0.007128961
0.006588042 0.006999999 -0.07082336
-0.02854032 0.007000003 -0.05726512
-0.03711773 0.01800001 0.05905081
-0.05810707 0.02195936 0.03248969
0.04193037 0.007000003 0.02491134
-0.01359984 0.007000005 -0.02547282
-0.06205048 0.02400001 -0.01204947
0.02910997 0.007000007 0.02974168
0.01029358 0.007000007 0.03519498
-0.009322586 0.00700001 0.03192926
0.07341471 0.02310743 0.002692729
0.07245044 0.007000003 0.006457075
-0.02327238 0.00700001 0.03911497
0.04177415 0.007000003 0.0004239194
0.0008193944 0.007000006 0.01015105
-0.0001455396 0.02020472 0.07336591
0.02755737 0.024 -0.05329856
-0.05493823 0.02426 0.01818328
-0.05425066 0.01009657 -0.04940068
0.007438199 0.007000005 0.0216363
0.01539832 0.023407 -0.07176626
0.02725016 0.007000007 0.04614697
-0.04715449 0.007000007 -0.03044599
0.03010831 0.007000003 -0.03185285
-0.03605646 0.007000014 0.04169386
0.0496198 0.006999999 -0.03900681
-0.01011305 0.007000003 -0.06763801
0.02082737 0.00700001 0.06124322
-0.05591607 0.007000014 0.04750588
0.09906238 0.01961068 0.003022298
0.01640511 0.02400001 0.06903993
0.06421086 0.024 -0.005377054
0.0284364 0.006999999 -0.0476373
0.03653298 0.006999999 -0.06141708
-0.04718802 0.01754151 -0.05110073
0.04748292 0.006999999 -0.01965053
0.08203439 0.01045804 -0.0009214729
0.0392554 0.018 -0.06133272
0.0288664 0.007000003 -0.01985284
-0.04870334 0.007000014 0.03798096
-0.03290501 0.007000003 -0.04081315
0.006098334 0.01424815 0.05824518
0.0006400589 0.007000009 0.03788827
0.0393004 0.01821173 0.04253279
0.0688314 0.024 0.01567034
0.03767701 0.02413636 -0.04392034
0.01750181 0.007000003 -0.04790619
0.07122582 0.01087334 0.0175909
-0.01293375 0.007000007 0.01365212
0.02153797 0.007000003 -0.008491594
-0.002006929 0.007000005 -0.002618209
-0.0732169 0.01909098 0.005665138
-0.03151166 0.024 -0.06292225
0.04100773 0.01800001 0.05319562
0.05612168 0.007000003 -0.004880376
0.06335044 0.024 0.005986929
-0.02891512 0.008562155 -0.0674988
0.02723413 0.02148489 -0.06816683
0.06422135 0.009526707 0.0355066
-0.04255997 0.00700001 0.01006927
0.006129351 0.024 -0.05876015
0.01325103 0.007000001 -0.02647299
-0.05795553 0.01651324 0.04518753
0.01226628 0.007000005 0.009868812
-0.01941655 0.007000007 -0.008214382
-0.02288517 0.00700001 0.01989372
-0.03591253 0.007000007 -0.01862903
-0.02210077 0.007000003 -0.03798814
-0.003826247 0.007000005 -0.01479121
0.03163624 0.01867649 0.06547573
-0.06431443 0.009548947 -0.03532925
-0.03438029 0.007000009 0.002870977
0.02036134 0.009465441 -0.07054298
0.1068781 0.01246597 0.004110657
-0.04135087 0.01800001 -0.04237374
0.03938803 0.006999999 -0.04588485
-0.005088722 0.024 -0.06660395
0.01011083 0.007000003 -0.01199465
0.05464726 0.007000003 0.03035442
-0.06175862 0.02400001 0.00146652
-0.007841006 0.007000014 0.06836636
-0.01293047 0.01587556 0.07233472
-0.009285505 0.007000003 -0.03518591
0.01042719 0.01491028 -0.05605625
-0.01613786 0.024 -0.05814937
-0.0478726 0.01254629 0.05560443
-0.03724271 0.007000014 0.02955617
0.05348723 0.006999999 0.007793505
-0.07324649 0.02133033 -0.005421363
0.05189635 0.01800001 0.04094043
