VERSION .7
FIELDS x y z
SIZE 4 4 4
TYPE F F F
COUNT 1 1 1
WIDTH 508
HEIGHT 1
VIEWPOINT 0 0 0 1 0 0 0
POINTS 508
DATA ascii
-0.005033582 0.9434762 -0.02046476
0.03111659 0.9407654 -0.02759797
0.04104997 0.8898785 0.008589312
0.02688271 0.9078034 0.03580244
0.02001031 0.8925072 0.02964456
0.04069726 0.9188136 -0.02762761
0.04104997 0.8959215 -0.01630074
0.01528807 0.9527524 0.009219191
0.04104997 0.9022337 0.002140146
0.002720788 0.9522108 -0.01232835
0.003991336 0.9540595 -0.001889027
0.02640511 0.953433 0.004305677
0.01633602 0.9373353 -0.03187875
0.02638468 0.9124823 -0.03791456
0.03487809 0.9369857 0.02675781
-0.006341994 0.9464757 0.01211576
0.02213442 0.8817388 -0.01033956
0.03826766 0.9456335 -0.002082947
0.03336604 0.8876742 0.02301459
-0.004489467 0.9475847 0.02256208
0.03752206 0.8965083 0.02799664
0.04104997 0.9343617 -0.0003165893
0.02917691 0.87925 0.002690685
0.04104997 0.9080328 -0.01804288
0.02131256 0.9266745 0.03545742
0.02779134 0.8979008 -0.03313598
0.04104997 0.9229558 -0.005294241
0.02350268 0.8839341 -0.0214858
0.02012067 0.9225268 -0.03765297
0.0009551793 0.9528692 0.008778561
0.003581271 0.9382141 0.029975
0.04082143 0.9310025 -0.02014468
0.03132047 0.9274155 -0.03571026
-0.005850971 0.9453419 -0.01029949
0.04092705 0.9258457 0.02199005
0.00760293 0.9294084 0.03457529
-0.001751617 0.9407328 -0.03091598
0.03879099 0.9432851 0.009079715
0.02128758 0.9514232 -0.01449996
0.04104999 0.8894364 -0.004823081
0.04104997 0.9144306 0.02301948
0.03826985 0.9075223 -0.03273636
0.03911418 0.9415641 -0.01344381
0.01536845 0.9067482 -0.03810729
0.01609452 0.9431417 0.02580173
0.006636143 0.946651 0.02171882
0.004457802 0.9468955 -0.02269685
0.03633542 0.9271225 0.03132586
0.02200401 0.9488826 0.01840771
0.04104997 0.9159728 0.005490015
0.03347902 0.8814056 0.01219517
0.04104999 0.9043807 0.01750979
0.03665291 0.9133732 0.03366762
-0.007306874 0.9486586 -0.0005797127
0.0174268 0.9461926 -0.02363226
0.01424572 0.9540422 -0.002295875
0.03117587 0.8891565 -0.02619944
0.04102267 0.9335115 0.01222511
0.02344197 0.8808438 0.01419529
0.03378023 0.8808526 -0.01176317
0.01440659 0.7377716 -0.02201642
-0.008425251 0.6162746 -0.03692677
-0.04151273 0.8498108 0.02689111
0.02031185 0.7969806 0.00740386
-0.04591484 0.6500205 -0.02298442
0.01398544 0.8549318 -0.02277726
-0.02042813 0.7210897 0.03672483
-0.03978942 0.8437767 -0.02960831
-0.0526083 0.7852052 0.007648704
0.003148451 0.6853777 0.03148374
-0.03237388 0.6641234 -0.03419676
0.02114235 0.612766 0.001112559
-0.02356895 0.8434389 -0.03718427
-0.007145748 0.7804611 -0.03676791
-0.04935112 0.6889318 -0.0176518
0.00635159 0.7960585 0.02937476
-0.04806193 0.7085289 -0.01999319
0.01486506 0.6803136 -0.02124397
-0.0524442 0.6805444 0.008687215
-0.0002570301 0.7124454 -0.0342635
0.01373242 0.6002798 -0.02297553
-0.04553238 0.6205564 -0.02350209
0.01913089 0.7041887 -0.01270894
-0.02223253 0.6173117 0.03647406
-0.02480047 0.6717894 -0.03683602
-0.03716867 0.6852877 -0.03133201
-0.05337723 0.8519156 -0.004604439
-0.003780484 0.7966396 -0.03589945
-0.04665364 0.6152756 0.02118091
-0.01439141 0.8236624 -0.03786304
-0.003651202 0.6624575 0.03472809
0.01724827 0.7844704 -0.01754941
0.01918669 0.6294314 0.01196379
-0.0524049 0.6557914 0.008935737
0.01133266 0.6497557 -0.02569312
0.01897147 0.7359996 -0.01314958
-0.01359317 0.8175985 0.03682725
-0.04080268 0.7342675 0.0277314
-0.0469953 0.819437 0.0204768
-0.0147372 0.6363662 -0.03772299
0.008653253 0.7912251 -0.02862948
-0.04438154 0.7937255 0.02391242
-0.0431155 0.7079189 0.02531498
-0.006597906 0.6802419 -0.03656415
-0.00107871 0.6423211 -0.03457355
-0.01440325 0.6435243 0.0369446
-0.05257432 0.8178024 -0.008697689
-0.02105403 0.8685243 -0.03763626
0.02108328 0.6807164 0.003310663
0.007588789 0.8312064 0.02833816
-0.008636296 0.7020301 0.03609527
-0.02116228 0.7511942 -0.03752424
-0.005881295 0.737481 -0.03644753
0.02101834 0.7410856 0.004326645
-0.03022499 0.6822205 0.03412039
-0.01868533 0.6583236 -0.03784402
0.005606115 0.7393945 -0.03083275
-0.04928191 0.6056558 -0.01774092
-0.03631561 0.7501302 0.03092876
0.01484591 0.7838854 0.02025872
-0.006470606 0.6731436 0.03574622
-0.03819284 0.6323727 -0.03064373
0.009278938 0.745653 0.02680253
-0.01200059 0.8394338 0.03656382
0.01119727 0.8131613 0.02492848
-0.05354328 0.7406152 0.00181592
0.01330866 0.6304742 -0.02359533
-0.05217232 0.7055031 0.009812675
0.01357692 0.8483875 0.02200279
-0.02701779 0.7807728 -0.03634542
-0.05353057 0.758034 0.001316884
-0.03983237 0.7815334 -0.02951798
0.02006744 0.8653923 0.008429308
-0.0429524 0.8382059 0.02538314
0.01986943 0.7728205 0.009377935
-0.005870879 0.6493554 0.03559047
0.01786913 0.8285341 -0.0160953
0.02112751 0.7051268 0.001604625
-0.002267256 0.8702921 -0.0352843
0.02099718 0.6412735 -0.004616509
0.01881395 0.6263367 -0.01347266
-0.007951215 0.8149009 -0.03697764
-0.01043585 0.7130724 0.03639563
-0.04523084 0.8353537 -0.02409977
-0.05030632 0.6899312 0.01468674
-0.0223931 0.8405168 0.03626002
0.01955992 0.8636429 -0.01171808
-0.02266264 0.6027067 0.03638835
-0.05256899 0.7149924 -0.00863936
0.02114576 0.8223158 0.0008152261
-0.04940733 0.7660592 0.01669612
-0.0297513 0.7257024 0.03429668
0.01849075 0.7640549 -0.01442442
0.004958615 0.7013524 0.03032899
-0.009811148 0.7474095 -0.03734483
-0.05352852 0.8687385 0.001150793
0.004619882 0.6699469 -0.03147452
-0.03681394 0.7014315 -0.03156865
-0.03981407 0.6470523 0.02853816
0.01803941 0.8241165 0.01438538
0.01302676 0.866178 0.02276703
0.01034728 0.835363 -0.02687935
0.0166146 0.8171612 -0.01857984
0.02112277 0.7866932 0.001720165
-0.02506474 0.8064817 0.03568245
-0.03158993 0.8163204 -0.03461884
-0.002556503 0.7692447 -0.03533263
-0.05342422 0.6097473 -0.00261947
-0.05198168 0.7905468 -0.01129457
0.0206269 0.8106233 0.006000931
-0.02731156 0.7462901 0.03522188
-0.007815421 0.7492142 0.03591669
0.01933943 0.8034348 -0.01224462
-0.05159627 0.6117127 0.01138817
-0.03251341 0.8485212 0.03296898
-0.04950717 0.7253761 -0.01733034
-0.02152744 0.6629294 0.03659732
-0.04207838 0.6739594 -0.02730112
-0.01699843 0.8539916 0.03670896
-0.03524318 0.7035245 0.03172385
-0.053417 0.6445622 -0.002922883
0.001988962 0.7508025 0.03216316
0.01430337 0.6775111 0.02111105
-0.03334747 0.6453567 -0.03371099
0.01578073 0.6479939 0.01904431
-0.01394397 0.7311289 0.03688689
-0.01757946 0.7130595 -0.0378586
0.01305811 0.7062006 -0.02391967
-0.04199472 0.6086092 -0.02732848
-0.04762128 0.7438973 0.01954474
-0.03944321 0.6795964 0.02877436
-0.04774891 0.6484895 0.0194184
0.01678607 0.6610345 0.01732994
0.001215652 0.6231558 0.03275269
-0.008723795 0.8559704 -0.03718519
-0.04693783 0.7292241 0.02063972
-0.02114307 0.7783664 0.03659238
-0.03724385 0.7513384 -0.03133715
-0.002601475 0.8248734 0.03419587
-0.05177554 0.7654717 -0.01218545
-0.04332291 0.778326 0.02504035
0.01962657 0.6845129 -0.01140177
0.010332 0.7196985 -0.02680336
-0.0004403144 0.6060777 -0.03426044
-0.005530745 0.8000137 0.03533996
-0.03380775 0.6082228 -0.03339104
-0.004545778 0.7822928 0.03497603
-0.05118516 0.6760908 -0.01352267
-0.009980142 0.7601175 -0.03739322
-0.05342902 0.8411356 -0.002621363
-0.05108477 0.8579065 -0.0138929
-0.006331578 0.6129048 0.0357703
-0.04772663 0.6320677 -0.02040672
-0.03880813 0.8115745 0.02911814
-0.05301017 0.7229983 0.005358944
-0.04320694 0.7396209 -0.02628253
-0.008814946 0.6562692 -0.03704681
-0.02946776 0.628006 0.03450073
-0.02988033 0.7221924 -0.03520007
-0.05339554 0.7313919 -0.003810344
0.004258424 0.6975186 -0.03175193
0.006739601 0.6387271 0.02925524
-0.05047975 0.6646936 -0.01509783
-0.05342649 0.7041805 -0.002608506
-0.0481976 0.7977607 -0.0198723
0.01967686 0.7592514 0.01023957
0.02001949 0.7241422 -0.01037367
0.01284768 0.7673954 0.02309907
0.01107074 0.6172928 -0.02594329
0.01792814 0.6548649 -0.01580331
0.01956829 0.7231439 0.01074806
-0.01665493 0.8014936 -0.03790475
-0.02003754 0.7547454 0.03670829
-0.006321773 0.6899216 0.0357073
0.01919366 0.6691933 0.01191647
-0.05254674 0.846674 0.007958106
-0.02029062 0.8125015 -0.03772281
-0.04925209 0.8102239 -0.01797076
0.02021851 0.7487322 -0.009234733
-0.02417816 0.6943432 -0.03696088
0.01971728 0.6703283 -0.01115419
-0.01881298 0.6092391 -0.03780828
-0.0388656 0.7682133 -0.03032743
-0.03537025 0.7939531 0.03156204
-0.05037999 0.7414775 -0.01538299
-0.02448082 0.7657675 0.03584703
0.02104093 0.7708508 -0.004465003
0.002377853 0.8332121 -0.0331864
-0.05349806 0.6283765 0.0001806835
-0.0286884 0.6721421 0.03481261
0.01676275 0.7521665 0.01730974
0.007438004 0.8156233 -0.02959868
0.01782034 0.7378157 0.01494607
-0.03781693 0.721084 0.02989078
-0.04563997 0.7583475 0.02261439
-0.05154786 0.8287661 -0.01282972
-0.0102271 0.8422085 -0.03751446
-0.0006845444 0.7541087 -0.03448702
-0.05182999 0.8151968 0.01061725
-0.03548215 0.7957174 -0.03248394
-0.01535682 0.6834439 0.03688781
0.004888564 0.6556225 -0.03127321
-0.04204026 0.7141855 -0.02736933
0.02105458 0.6625497 -0.00429935
-0.04336619 0.6941668 -0.02609523
-0.02458949 0.6904551 0.03588239
-0.04812734 0.8500681 0.01865808
0.007385045 0.6155308 0.02870322
0.009541824 0.7731407 -0.02767866
-0.05346094 0.6687632 -0.00126671
0.01963718 0.6090828 -0.0113141
0.02117677 0.6527072 -0.0002317961
-0.03763059 0.6616513 0.03006979
-0.04250526 0.6028718 0.02604172
0.009744152 0.7533134 -0.02744966
-0.04155374 0.8152214 -0.02791143
-0.05350903 0.8311019 0.002368979
0.008569658 0.6500238 0.02755169
0.01413825 0.6892494 0.0213353
-0.03704584 0.6125901 0.03052215
-0.02915836 0.8181344 0.03448711
0.007191092 0.7299422 0.02879616
0.006530091 0.8663315 -0.03028076
-0.05210862 0.6332431 -0.01060844
-0.03431607 0.6028427 0.03236192
0.01404636 0.6912322 -0.02255036
-0.03117415 0.7380968 -0.03471615
-0.0534852 0.8023701 0.002530585
0.008355632 0.6796463 -0.02884184
0.01941137 0.6174423 0.01146876
0.01913719 0.8508238 -0.01280925
-0.02690124 0.8661437 0.03521933
-0.01800114 0.7386396 -0.03789002
0.02072993 0.8365744 0.005524979
0.01991974 0.7122724 0.009203804
0.01421615 0.8654438 -0.02241992
-0.01800985 0.6466219 -0.03781699
-0.05421324 0.9122334 0.03657962
-0.005934224 0.9133124 0.03674175
-0.02953775 0.9089897 -0.03749133
-0.05015962 0.874828 -0.01629932
-0.04285367 0.9529192 0.008589455
-0.01927654 0.9521464 0.01108908
-0.02479592 0.9472203 -0.02220659
-0.02631761 0.8828632 0.03542608
-0.04543769 0.950991 -0.01546229
-0.008536309 0.8945667 -0.03732157
-0.03804884 0.9374235 -0.03171515
-0.05195917 0.9188989 -0.03803102
-0.03288717 0.8917991 0.03276781
-4.099309E-05 0.9036754 -0.03625701
-0.04231667 0.9276476 0.03515114
-0.06168105 0.9416857 -0.02826666
-0.010428 0.8866004 0.03637562
0.01127356 0.8810853 0.02472095
-0.05559914 0.9539982 -0.001548933
-0.05370018 0.9447953 0.023966
-0.04178584 0.8854517 0.02651289
-0.03475001 0.8822151 -0.03311586
0.01148024 0.885977 -0.02582059
-0.01940992 0.8998578 -0.0379904
-0.03503693 0.95281 -0.01023393
-0.04843225 0.9315982 -0.03499953
-0.03406727 0.9458843 0.02263639
-0.03810555 0.9218733 -0.03775044
-0.05906422 0.9525949 0.009141384
-0.03414463 0.917709 0.0368062
-0.006946519 0.9349567 0.03197074
-0.02785628 0.8913537 -0.03619865
-0.02201165 0.9539083 -0.003703272
-0.05374472 0.9279622 0.03505549
-0.007249027 0.9120356 -0.03801801
0.003510684 0.8870261 -0.03241272
-0.06074864 0.9484208 -0.02011843
-0.05379568 0.8989476 -0.03365874
-0.03609805 0.9478621 -0.02124711
-0.04406062 0.905282 -0.03635738
-0.04993248 0.8930877 0.02840459
-0.007635847 0.9253745 -0.03703118
-0.06169546 0.9191061 0.03657695
-0.01457956 0.8995141 0.03679416
0.002130732 0.8801926 0.03202716
-0.0164091 0.9404043 -0.02954785
-0.02809909 0.9086226 0.03623422
0.003795251 0.8943495 0.03158295
-0.02919608 0.9324561 -0.03460664
-0.04145709 0.8929253 -0.03027537
-0.04802274 0.9457562 -0.02405987
-0.01674483 0.9379153 0.03009379
-0.05959246 0.8888675 0.02439703
-0.05467826 0.882269 0.01428121
-0.01186991 0.8742065 -0.03787107
-0.03887347 0.9385706 0.02962678
-0.05927336 0.9001943 0.03287768
-0.01849876 0.9124104 0.03682913
-0.05179454 0.8909609 -0.02786501
-0.01447631 0.9459767 0.02252468
-0.03066547 0.9537659 0.004048099
0.01261191 0.8756069 -0.02457515
-0.05212885 0.884243 -0.0193767
-0.04343632 0.8835993 -0.02604609
-0.009399325 0.9238433 0.03608394
-0.01691078 0.951804 -0.01338035
-0.0481843 0.9024386 0.03399149
-0.03681732 0.8765556 0.03064365
-0.02671588 0.5666566 -0.04256669
-0.05561165 0.5871805 0.00167338
0.0210029 0.5538646 -0.005291007
0.002312109 0.5044039 0.008479273
0.001782671 0.5634824 -0.03633993
-0.06284308 0.5426036 -0.05528196
-0.06777073 0.491782 -0.04831108
-0.04197113 0.4990302 0.04949984
-0.049816 0.5332011 -0.05696044
-0.05370827 0.4917605 -0.04816936
-0.06094441 0.5806206 0.01247853
-0.003365353 0.5492661 0.03880313
-0.03983842 0.4772555 -0.02946433
-0.02783885 0.5484569 0.04761925
-0.005057186 0.5096918 -0.03088802
0.002962187 0.5122557 -0.02046885
-0.03703263 0.5713953 0.03330548
-0.04771376 0.544715 0.05296434
-0.06020431 0.4684666 -0.01644083
-0.005162701 0.5417944 -0.04047498
-0.04474552 0.4677178 0.0007746635
0.009002477 0.5709081 0.0303809
-0.01201332 0.5644753 0.04106031
-0.03186677 0.5002967 0.04623162
-0.01850755 0.506339 -0.04182056
0.01566583 0.5325437 -0.006275448
0.02112255 0.5944767 -0.0115765
-0.01916781 0.5898335 0.03876999
-0.01927724 0.4815431 0.0133633
-0.06765441 0.5318756 -0.05781026
-0.03838463 0.4778993 0.02886993
-0.03406112 0.5339586 -0.05329509
-0.003363416 0.5021499 0.02042885
-0.04644658 0.4702919 -0.01831976
0.01665939 0.5930535 0.02071194
-0.02668366 0.5625817 0.04309003
-0.001859546 0.497987 -0.008119505
-0.05905949 0.4806443 0.03799837
-0.0001282692 0.5749431 -0.03693246
-0.009128898 0.4886166 -0.004643569
-0.03957666 0.4920977 -0.04517759
-0.05240388 0.5724545 0.03220227
-0.06829163 0.4738467 -0.02918977
-0.0420292 0.57215 -0.0328877
-0.01159009 0.5320495 -0.04383925
-0.03293751 0.47357 0.01433088
-0.06643126 0.5108312 0.05606563
0.02215156 0.5801952 0.009846772
-0.0007807016 0.5623038 0.03706454
-0.05647947 0.5562871 -0.04854562
0.02219614 0.5826225 -0.01044076
-0.007607594 0.5537339 -0.04154048
-0.05464165 0.5594699 0.04547295
-0.01307552 0.5177851 -0.04224059
-0.05363132 0.5071622 -0.05552172
-0.04006732 0.5244032 0.05504262
-0.01673921 0.5516745 0.04435948
-0.06195261 0.523627 0.05765717
-0.043327 0.5548669 0.04748476
-0.03613135 0.5412151 0.0516113
-0.001094028 0.5165 0.02957569
0.02169383 0.5642307 0.008592326
-0.06156689 0.5169553 -0.0578871
0.01558548 0.5609059 0.02219663
-0.02762708 0.5550481 -0.04627133
0.01522733 0.539814 -0.0162088
0.008012652 0.5266126 -0.02281678
-0.02137918 0.4780714 0.003469845
-0.01664419 0.5000577 0.03573252
-0.04190604 0.5826854 0.03063991
0.01622494 0.5769181 -0.02327789
-0.05626792 0.5115573 0.0562126
-0.04769255 0.5774136 -0.02535337
0.01264289 0.5443158 0.02273539
-0.01260613 0.5399798 0.0439068
-0.0486092 0.5912679 0.02152069
-0.04738604 0.4807324 0.03653173
-0.03785402 0.5497714 -0.04977926
-0.06451011 0.4691567 0.01776528
0.01950192 0.5730193 0.01671206
-0.006885141 0.5080076 0.03126904
-0.01883385 0.4871641 0.02446205
-0.04235117 0.4718602 0.01927141
-0.04734535 0.5175433 0.05629219
-0.03895328 0.5115166 0.05316232
-0.002379015 0.5253209 -0.03554295
-0.02915244 0.4785506 0.02237437
-0.04990023 0.4923532 0.04741571
-0.05115679 0.4735731 -0.02782403
-0.03231777 0.5796784 -0.03764025
-0.01071282 0.5012768 -0.0312041
-0.004496232 0.4950078 0.009397299
-0.04864617 0.5485611 -0.05218298
-0.05413062 0.4697873 0.01915927
-0.01974055 0.4952347 -0.03548675
-0.04367387 0.5889879 -0.02859963
-0.01092771 0.5840582 -0.03964099
-0.06466466 0.5697173 0.0354865
-0.008780763 0.5194539 0.03873543
-0.04870582 0.5773367 0.02407055
-0.03183634 0.5798801 0.03698859
-0.06619823 0.4662016 -0.001320548
0.006677061 0.5520827 -0.03224953
0.01786122 0.544614 0.01113043
-0.02201657 0.486069 -0.02754629
0.0173797 0.5520713 -0.01734096
0.009587541 0.5566205 0.02912267
-0.00944598 0.5660779 -0.0409704
-0.03051066 0.4726061 -5.113575E-05
-0.03861614 0.5663971 -0.04135216
0.007960245 0.5962104 -0.03066808
0.01845267 0.5621116 -0.01801476
-0.00266704 0.574695 0.03727013
-0.05692953 0.5816021 -0.01089709
-0.06552123 0.5726888 -0.03188347
-0.06660014 0.5791367 -0.01843308
0.02264047 0.5957528 -0.0013279
-0.05969137 0.5447561 0.05384866
-0.04218608 0.5232586 -0.05624552
-0.00177753 0.5023893 -0.01806852
0.001870796 0.5375986 -0.03464932
-0.02334126 0.5844802 -0.03938025
-0.03856835 0.505829 -0.05203106
0.008865461 0.5914078 0.02969768
-0.0296791 0.4748042 -0.01380692
-0.06446309 0.5542735 0.04920833
-0.008628085 0.4920384 -0.01552428
-0.02671331 0.5101262 0.04772711
0.01039378 0.5240949 0.01479268
-0.05967405 0.4821221 -0.04026084
-0.05251502 0.5909469 -0.01510082
-0.005139217 0.5881194 0.03746752
-0.02075175 0.5213485 0.04716353
-0.01718089 0.5575297 -0.04402237
-0.05341506 0.4670669 0.008249851
-0.01412239 0.5792762 0.03948038
-0.02234281 0.573119 0.04040323
-0.04022431 0.5634143 0.04228475
-0.03962927 0.4843599 -0.03847621
0.004300267 0.5452462 0.0329519
-0.05711517 0.5261552 -0.0582295
-0.03018664 0.4790516 -0.02493947
-0.05710188 0.4747665 0.02987537
