VERSION .7
FIELDS x y z
SIZE 4 4 4
TYPE F F F
COUNT 1 1 1
WIDTH 219
HEIGHT 1
VIEWPOINT 0 0 0 1 0 0 0
POINTS 219
DATA ascii
0.05702973 0.06507798 0.0104104
-0.01494244 0.07110362 0.05604039
-0.06359506 0.1173145 0.05501492
0.0109701 0.03907385 -0.05671943
-0.05676533 0.1092366 0.05707471
0.02124556 0.05815981 -0.05385392
0.05100038 0.06420891 0.02738792
0.03950963 0.1086076 0.04240523
0.04543305 0.06551097 -0.03589745
0.01114224 0.06303009 0.05677193
0.04799442 0.0918154 -0.03240656
0.006457717 0.05888037 -0.05752357
-0.05962004 0.04883872 -0.02874513
-0.06268995 0.1416754 0.03943084
-0.01988682 0.1220216 -0.05538794
-0.04459672 0.05564433 -0.0393967
0.047956 0.07225119 0.03252745
-0.01966657 0.03629623 0.05431519
-0.06500838 0.1319175 0.04779116
0.02408632 0.07693686 -0.05271631
0.02484327 0.04142942 0.05232927
-0.0186647 0.06615499 -0.05479443
-0.04188528 0.04968337 0.03977732
-0.04724829 0.1416107 -0.03923291
0.01945413 0.06937642 0.05445774
0.05572406 0.08871308 0.01570642
-0.04294117 0.07979337 0.0545828
-0.05484889 0.1249055 0.05190235
-0.06110501 0.06549273 0.04722634
0.02833038 0.09485237 -0.05052628
0.02805649 0.1053387 -0.05066815
0.05009244 0.03489736 -0.02880202
-0.03093654 0.1341342 -0.04971584
0.00734281 0.09184669 -0.05743689
-0.06163183 0.1427777 -0.03807633
-0.02080963 0.09616098 0.05790517
-0.007607912 0.05734164 0.0574775
0.05733031 0.07048497 -0.008281143
0.05543439 0.06080962 -0.01678721
-0.06642887 0.09733628 -0.05792787
0.05120722 0.1010779 0.0269155
-0.02658379 0.03751344 -0.05128451
0.05297026 0.07349055 0.02321549
0.0177704 0.111886 -0.0551107
-0.03869313 0.09944695 0.0579962
-0.04754758 0.04112341 -0.03300414
-0.04040794 0.1032573 -0.057831
-0.04427867 0.1406409 0.04103382
-0.05712356 0.03499433 0.008618213
-0.05805613 0.07998015 -0.05472073
-0.03861751 0.03949074 0.04320514
-0.03952674 0.06283717 0.04588751
-0.02926179 0.04520752 0.04998344
-0.05875941 0.06187177 -0.04435294
0.01608686 0.08626448 0.05563692
0.05255225 0.1014096 -0.02427372
-0.06628491 0.1136476 -0.05613181
-0.06703918 0.1235686 -0.05256199
0.04669238 0.03955736 0.03427066
0.04656793 0.1112213 -0.02462067
0.03820478 0.08227173 -0.04352287
0.003104554 0.08190556 0.05784765
-0.005542146 0.06753826 0.05771305
0.03157593 0.08253485 0.0485699
-0.01302526 0.08116403 -0.05702705
-0.006785808 0.09545367 -0.05795646
0.0523296 0.07908997 -0.02481745
-0.02687053 0.1147269 -0.05586342
0.006178624 0.111688 -0.05757308
-0.0115057 0.08139458 0.05725663
0.007148271 0.04891458 0.05747637
0.00481461 0.07621007 -0.0576582
0.002896863 0.1123514 0.05786657
0.04308366 0.05574453 -0.0387726
-0.06473736 0.1570371 -0.0008181967
0.0438566 0.08509255 0.03786894
-0.002287576 0.03838265 -0.05774353
-0.05775121 0.1190476 -0.05444988
0.03269067 0.05145352 0.04774646
0.04022064 0.04885887 0.04158541
0.03375223 0.04476733 -0.04701173
0.01819238 0.08606739 -0.05497451
-0.02287875 0.1252177 0.05422929
0.05776405 0.09856018 -0.003962109
0.05664337 0.04816826 -0.0123432
0.02418516 0.06029971 0.05267783
-0.05258224 0.1564802 -0.02411214
0.05624645 0.08583734 -0.01401436
0.0428775 0.1007274 -0.03893759
-0.05015239 0.1483711 0.03169794
-0.0018296 0.1260972 -0.05791916
-0.05669241 0.04226187 -0.01422395
0.01544434 0.1095436 0.05574838
0.03448945 0.06532474 -0.04650506
0.04103207 0.06836377 0.04076877
-0.05931375 0.05104151 0.03225159
-0.03005221 0.09611223 -0.05787063
-0.008353557 0.1096383 0.05786325
-0.04041553 0.1095557 0.0570226
-0.009331319 0.09512426 0.05797708
-0.04668627 0.06844221 -0.04895765
-0.00649144 0.05458797 -0.05759702
-0.05476853 0.1581127 0.01406517
-0.06419586 0.07117847 -0.05077296
0.05195884 0.0911812 0.0255876
-0.01340382 0.03549924 -0.0562137
-0.01728988 0.1001594 -0.0579588
0.04992617 0.04919291 -0.02929229
-0.01196792 0.1257815 0.05674466
-0.04978935 0.04393674 0.02936267
-0.04469478 0.134109 -0.046036
0.01257661 0.06834573 -0.05649951
0.05742771 0.05473471 0.006949257
0.003958173 0.09595362 0.0577986
0.03837276 0.0914755 0.04339907
0.05759699 0.07686335 0.005414603
-0.04634535 0.1229347 -0.0528118
-0.05008177 0.1333602 0.04663388
0.003520167 0.1291363 0.05782621
0.0509766 0.06195388 -0.02757782
0.02461446 0.1061695 0.05240416
0.04754091 0.110771 0.02433979
-0.02864901 0.08182201 0.05539363
0.02087677 0.04428599 -0.05398063
-0.004008866 0.0699061 -0.05782665
0.03378874 0.03810272 0.04685572
-0.03630545 0.05622493 -0.04502764
-0.03508807 0.04451665 -0.04606323
0.05577472 0.04659707 0.01537301
-0.04507011 0.09357586 -0.05771898
-0.02807866 0.1415867 0.05057492
-0.02598014 0.07884368 -0.0548479
-0.02746065 0.1083804 0.0572285
-0.01428211 0.1330602 -0.05609239
0.03798889 0.129001 -0.04380082
0.03747695 0.1518893 -0.03677307
-0.008771766 0.1618983 0.02917692
-0.01840794 0.1631669 -0.02437791
0.05129054 0.109036 -0.005901311
0.04598854 0.1246356 0.03527568
-0.04175815 0.1586372 -0.04015836
-0.01009608 0.1545724 -0.0562813
-0.03748831 0.1656789 0.03039373
-0.01968307 0.1633348 0.04193844
0.01425051 0.135092 0.05618992
0.001653755 0.146355 0.05795243
-0.03990278 0.1659968 0.01224716
0.03224999 0.1564977 0.001452673
-0.04232794 0.1612583 0.03879133
0.03906607 0.1236068 0.04284985
0.03115734 0.1352084 -0.04887313
0.005254865 0.1410397 -0.05772954
-0.006995653 0.1616645 -0.04395738
-0.05541233 0.1668821 -0.00426133
0.008705092 0.1535462 -0.05503938
-0.005646553 0.1614868 -0.02384403
0.0465745 0.1520182 -0.01867279
-0.01624664 0.1628824 -0.01047765
0.02499568 0.1543755 -0.04571513
0.03559851 0.1560568 0.01992969
0.01095948 0.1593006 0.04254852
0.0210069 0.1579778 0.01331105
0.01997658 0.1581135 -0.008130454
0.0562992 0.1205284 -0.01386831
0.02549864 0.1573865 0.02263619
0.0489802 0.110105 0.01319387
-0.03588239 0.1654675 -0.001464181
-0.009427372 0.154538 0.05635831
0.05517644 0.1176986 0.01781619
0.01875868 0.1582738 0.001936369
0.05476253 0.1411335 0.01697436
0.001751521 0.1605129 -0.0350085
0.05795778 0.1344258 -0.001433332
-0.01081397 0.1621671 -0.0009400323
-0.0518952 0.1601004 0.02907184
0.04672711 0.15283 0.0132579
0.001687373 0.1605213 0.01413439
-0.04179533 0.1662459 -0.02879798
0.0425339 0.1424791 0.03877111
-0.0189656 0.1583558 -0.05293378
0.04306957 0.1548875 0.001558688
0.0186312 0.1345356 -0.05489282
0.0513289 0.1320804 -0.02693949
0.04957437 0.1449997 0.02649346
0.02854659 0.1569712 -0.03140296
0.02632765 0.1467037 0.05087388
0.0579682 0.1224241 -0.001079321
0.0560111 0.1109681 -0.0179099
-0.02714943 0.1516179 -0.05124507
0.005165702 0.1600634 0.03285946
0.05352019 0.14802 0.003362037
0.05242658 0.1302161 0.02476713
0.02238234 0.1577968 -0.02192472
-0.008538347 0.1394818 0.05883298
0.05924046 0.1064323 0.004646574
-0.02933181 0.1646051 0.01488386
0.01824089 0.158342 -0.03477985
-0.02869017 0.1645206 0.02577826
0.008735604 0.1595934 0.0227906
-0.05748423 0.1612037 -0.01525888
-0.05023256 0.1662059 -0.02258924
0.03926232 0.118217 -0.04468011
0.01873152 0.149027 -0.05384906
-0.01089085 0.1621773 0.01600206
-0.01530525 0.1607115 0.05109481
-0.03261328 0.1650371 -0.02334686
-0.02096237 0.1526445 0.05405063
-0.02285553 0.1637525 -0.0353158
0.009571586 0.1594833 0.006934922
0.001588858 0.1604919 0.04626383
0.02314292 0.1567392 0.04239387
0.0553565 0.1340093 -0.01724921
0.03993617 0.1521476 0.03275697
0.05416427 0.1449334 -0.01337051
0.0338152 0.150426 0.04285854
-0.02332908 0.1638148 0.005347662
0.04840577 0.1453921 -0.02841185
0.01125303 0.159262 -0.04215593
-0.02006622 0.1633852 0.02067312
