VERSION .7
FIELDS x y z
SIZE 4 4 4
TYPE F F F
COUNT 1 1 1
WIDTH 704
HEIGHT 1
VIEWPOINT 0 0 0 1 0 0 0
POINTS 704
DATA ascii
-0.1092894 0.581967 -0.003708921
-0.1160119 0.57355 0.0298077
-0.09720889 0.5816287 -0.00746607
-0.1911041 0.4774092 0.03010347
-0.1220504 0.4872459 -0.05651455
-0.07539184 0.4663948 0.0009666961
-0.164226 0.47058 -0.05073307
-0.09466378 0.5636522 0.04191768
-0.1447012 0.4982919 -0.05754074
-0.1590296 0.5017573 0.05452021
-0.077819 0.5190654 -0.05810812
-0.1199457 0.5476279 -0.05336243
-0.1690453 0.4924721 -0.05020476
-0.140338 0.4672951 0.0575221
-0.07785028 0.4695808 0.01896936
-0.1204218 0.5646789 -0.04173306
-0.07743179 0.50085 0.05274451
-0.1394971 0.5240806 0.05765126
-0.09284969 0.4719592 -0.03878969
-0.1711517 0.5049487 -0.05491402
-0.07323438 0.5106628 0.05585765
-0.07923954 0.582018 -0.004002813
-0.09030339 0.5169717 0.05718894
-0.07388149 0.5759002 0.02553951
-0.1955509 0.467771 -0.005659548
-0.1038242 0.5029696 -0.0542311
-0.07290649 0.5289543 -0.05791107
-0.08262299 0.4690467 -0.02336395
-0.07525989 0.481805 -0.03981582
-0.1102088 0.5665766 -0.03986046
-0.1931995 0.4593964 0.007809996
-0.08258712 0.5367385 -0.05682561
-0.0988114 0.4640432 -0.04490017
-0.1637741 0.5173342 0.05722888
-0.1024312 0.5407561 -0.05588663
-0.08296086 0.5805497 -0.01358807
-0.1030138 0.5562738 0.04789168
-0.129922 0.467758 0.05739469
-0.1203514 0.5443459 0.05384496
-0.1198857 0.5820153 -0.000295758
-0.1524009 0.5594847 -0.04628499
-0.13198 0.4753171 -0.05816001
-0.1797327 0.4617952 -0.03804045
-0.1076119 0.5770794 -0.02388365
-0.1314211 0.5425158 0.05459812
-0.104989 0.4595616 0.04878053
-0.189533 0.4663669 0.02130675
-0.1064359 0.4788347 0.04951749
-0.1659915 0.4711726 0.04915404
-0.08433452 0.5615869 -0.04460617
-0.1012827 0.5015187 0.05296567
-0.0758286 0.557582 0.04677529
-0.1929614 0.4733743 0.003432378
-0.1519653 0.5416268 -0.05555288
-0.1255085 0.5754702 -0.02727194
-0.1705952 0.5030294 0.05357202
-0.1327903 0.5636069 0.04214213
-0.08779597 0.5772452 -0.02341887
-0.1380059 0.5747517 0.02773417
-0.1028353 0.513756 -0.05732915
-0.1451089 0.5767664 -0.02307352
-0.09303386 0.4767712 0.03868896
-0.1050041 0.5601773 -0.0457468
-0.08387919 0.5644436 0.04118931
-0.08870696 0.5101888 -0.0565313
-0.1046871 0.5764126 0.02476597
-0.1798268 0.4715503 0.03718903
-0.1319834 0.4990698 0.0575317
-0.173844 0.4839876 0.04441712
-0.1477161 0.477567 0.05643883
-0.1347394 0.5117588 -0.05826088
-0.1157544 0.4736999 -0.05461228
-0.1047981 0.5803744 -0.01435668
-0.1899392 0.4613741 -0.02116502
-0.1576159 0.4841937 0.05334201
-0.07793178 0.5462465 -0.05387029
-0.07651375 0.4875826 0.04461671
-0.1247084 0.5289406 -0.05799537
-0.1184092 0.4859549 0.05494153
-0.08371685 0.4722018 0.0269571
-0.1490443 0.5595676 0.04547647
-0.1562916 0.4718301 0.0539384
-0.1110019 0.5617555 0.04375037
-0.0967515 0.5671618 -0.0391963
-0.09649535 0.5353178 0.05643544
-0.08612074 0.4622244 -0.03010234
-0.1714482 0.4826179 -0.04610974
-0.1232083 0.5679013 0.03765051
-0.09323397 0.4992914 -0.05255632
-0.1530196 0.4890195 -0.05562407
-0.130061 0.5601943 -0.04576521
-0.1403731 0.5343862 -0.05733884
-0.1139903 0.5795931 0.01646465
-0.1788166 0.4726613 -0.03882706
-0.1041641 0.5814213 0.00766155
-0.0853787 0.5469499 0.05291296
-0.09945576 0.4819813 -0.04539469
-0.1312194 0.5415326 -0.05559701
-0.09841141 0.5232358 0.05764252
-0.1275664 0.5110687 0.0574598
-0.1308707 0.5817846 0.004621035
-0.09080412 0.489736 -0.04673288
-0.1326246 0.4940754 -0.05817754
-0.1529669 0.5133181 -0.05762864
-0.1300678 0.5678321 -0.03835161
-0.1387331 0.4665735 -0.05821373
-0.1316683 0.4871786 0.05752394
-0.08421648 0.5736108 0.029688
-0.1651129 0.5140277 -0.05736957
-0.1415356 0.4870704 -0.05797955
-0.1275432 0.576493 0.02452066
-0.1428704 0.5644815 -0.04191822
-0.08228667 0.5011451 -0.05350995
-0.1339549 0.5236067 -0.05833426
-0.1052888 0.5268012 -0.05818297
-0.1426108 0.5453057 0.05354861
-0.1458501 0.4983959 0.05678656
-0.1821885 0.4812627 0.03890285
-0.1357604 0.5798591 0.01571577
-0.124537 0.5806715 -0.01321454
-0.09563105 0.4867222 0.04469876
-0.1094524 0.4819025 -0.05170786
-0.1537895 0.5299311 0.05734295
-0.1241322 0.4992712 -0.05717701
-0.1410343 0.5562501 -0.04852209
-0.1222601 0.5295886 0.05732677
-0.1660639 0.4939297 0.05093318
-0.08682369 0.4952593 0.04980556
-0.1151151 0.4654921 0.05385255
-0.1475638 0.4784157 -0.05707436
-0.1139584 0.4941856 -0.05417136
-0.08523665 0.5267456 -0.05821836
-0.1221176 0.5603639 0.04480257
-0.08975676 0.5465461 -0.05376801
-0.1941772 0.07440286 -0.02060825
-0.1962113 0.08983797 -0.04046337
-0.1870807 0.1372599 0.02760804
-0.1663389 0.07842354 0.05414774
-0.193347 0.1395848 0.04158397
-0.1833217 0.04797423 -0.02034779
-0.1961382 0.1008786 0.05144534
-0.1550366 0.05912585 0.04269115
-0.1723913 0.04269429 0.01319914
-0.1461457 0.04875381 -0.02521231
-0.1745144 0.07526954 -0.05283128
-0.2029599 0.141145 0.01748341
-0.160284 0.04234528 -0.01160245
-0.1925489 0.06204279 -0.0110555
-0.1905827 0.06707835 0.03973214
-0.192737 0.1285673 0.04984388
-0.1842357 0.1065511 0.05751973
-0.1742385 0.09515075 -0.05784297
-0.1956688 0.08578017 0.03850025
-0.1642605 0.04781816 -0.0269121
-0.1998613 0.1176052 0.01273904
-0.1887205 0.08971082 -0.05572652
-0.1970384 0.09615821 0.007499055
-0.1979699 0.1031923 -0.04489293
-0.179487 0.08233179 0.05548629
-0.1781722 0.1090438 -0.05789291
-0.1938036 0.07159473 0.01570373
-0.1654612 0.0614746 0.04404497
-0.1732422 0.04134703 -0.003883497
-0.1763503 0.04782161 0.02648771
-0.1998271 0.1558798 0.01324654
-0.1980413 0.1038025 0.0403278
-0.1909888 0.1203696 -0.05383788
-0.1466332 0.04982686 -0.0007120908
-0.2034394 0.1447757 0.003216422
-0.167252 0.04997041 0.03070069
-0.1760483 0.06006541 0.04284082
-0.2005758 0.1230385 0.02123639
-0.1942064 0.07466324 0.0272309
-0.2019624 0.1335392 -0.01859351
-0.1906953 0.1450305 -0.02370906
-0.183996 0.04514368 -0.004448569
-0.1752267 0.0947373 0.05780313
-0.2005091 0.1225421 0.03412246
-0.1472759 0.04992937 0.03329802
-0.1955611 0.08494841 0.02123171
-0.1557283 0.04131062 0.003980272
-0.1964268 0.09150553 -0.002119063
-0.1855068 0.116356 0.05537593
-0.1927167 0.1405125 -0.04224635
-0.1986332 0.1082474 -0.02399895
-0.1914486 0.05556758 0.0008864134
-0.1951458 0.08177352 -0.0046578
-0.1726819 0.06588781 -0.04749569
-0.1912168 0.08031698 -0.04979584
-0.1970294 0.0960624 -0.02701798
-0.2028893 0.1405875 -0.008674146
-0.1466131 0.04130879 -0.01383044
-0.1971683 0.1585929 -0.001727044
-0.160167 0.06117328 -0.04380622
-0.2028913 0.1431504 -0.02933341
-0.2005557 0.1228568 -0.01529681
-0.1976995 0.1460892 0.03378026
-0.1981243 0.104399 -0.00198334
-0.1923944 0.06235234 0.0237971
-0.1934378 0.07041896 -0.03444047
-0.1997244 0.1165197 -0.04380471
-0.1865334 0.04959985 0.01720105
-0.1973182 0.09826745 -0.01341329
-0.2022495 0.1357413 0.007926831
-0.195728 0.08617458 -0.03095984
-0.1881205 0.05776675 0.03189491
-0.1980451 0.1038196 0.02583736
-0.1984074 0.1065571 0.007869976
-0.1512635 0.04651874 0.02430463
-0.1998366 0.155894 -0.01348708
-0.2013862 0.1301337 -0.04010242
-0.1843146 0.0541556 -0.03190196
-0.1753742 0.07111691 0.05075807
-0.1425959 0.04111216 0.0120943
-0.1853516 0.09600557 0.05780852
-0.1924918 0.1489406 0.01103607
-0.1480628 0.05290637 -0.01341727
-0.2018454 0.1326883 0.0284566
-0.1958421 0.08705102 -0.01893621
-0.2010584 0.1266871 -0.0005241617
-0.2006868 0.123844 -0.02593233
-0.1772886 0.08561277 -0.05634502
-0.1986894 0.1535326 -0.02337669
-0.1936906 0.07072245 -0.001765862
-0.1835318 0.06653194 -0.04652258
-0.1888379 0.08702565 0.05483163
-0.180131 0.05824486 -0.04027723
-0.1687504 0.05506146 -0.0375811
-0.1424755 0.03982648 -0.00326904
-0.1853058 0.1616696 0.03020927
-0.08533358 0.04130547 -0.002280367
-0.1310729 0.1044403 -0.05797858
-0.07510845 0.1163638 0.05519206
-0.113054 0.1243127 -0.0544247
-0.1358747 0.1364468 0.05796938
-0.08310936 0.1634923 -0.02404061
-0.09805773 0.119566 0.05410675
-0.1310167 0.09585799 0.05780096
-0.1047004 0.1070162 -0.0574492
-0.1773797 0.13874 -0.04333185
-0.1103506 0.04690266 -0.02507718
-0.08957643 0.1629758 0.03487686
-0.1373332 0.1396646 -0.05801004
-0.09048989 0.1339693 -0.04614281
-0.08061011 0.08296745 -0.05566859
-0.09924527 0.07434261 0.05235245
-0.1573033 0.1604644 0.05380886
-0.1300806 0.04520264 -0.02077765
-0.1460798 0.1623417 -0.05707658
-0.112279 0.1492827 0.05288212
-0.1172054 0.1125596 0.05694393
-0.122239 0.0619326 -0.04437737
-0.07913471 0.168298 0.01206004
-0.1500123 0.1120488 0.05729716
-0.1104994 0.08388126 -0.05583229
-0.1659979 0.1183348 0.05471926
-0.1483902 0.09436223 0.05768127
-0.08038625 0.0642198 0.04615558
-0.1714118 0.147915 -0.04562406
-0.1857336 0.1566065 -0.02937126
-0.1158919 0.09622826 0.05782103
-0.1681465 0.143846 0.0478262
-0.08674616 0.06068039 -0.04324057
-0.1304693 0.04877031 0.02864912
-0.1461639 0.1569009 0.05697975
-0.1188855 0.06256999 0.04498016
-0.09569257 0.1502118 0.04153267
-0.09625354 0.04691302 -0.02503191
-0.08597288 0.07445425 -0.05239211
-0.1134205 0.07145925 -0.05074488
-0.1091224 0.06006617 -0.04267148
-0.08955742 0.1012102 0.05787718
-0.1400561 0.1265432 -0.05785255
-0.1189371 0.1547371 -0.05550179
-0.09820744 0.08108371 -0.05501566
-0.1703826 0.1305799 0.04960904
-0.08868949 0.08975142 0.05719169
-0.1583543 0.1088205 -0.05724732
-0.09956895 0.04152088 -0.0052804
-0.1511745 0.1284613 0.05580321
-0.09853918 0.05776954 -0.04044193
-0.1159293 0.07330789 0.05181295
-0.1789401 0.1608919 -0.03877478
-0.1315336 0.1608322 -0.05787875
-0.1241459 0.04202701 -0.00979278
-0.09085821 0.1224301 -0.05302282
-0.1446653 0.07962213 0.05448656
-0.09812365 0.1495025 -0.04385438
-0.1540028 0.1546089 -0.05508832
-0.1150348 0.04353958 0.01622811
-0.1603324 0.1408803 -0.05248115
-0.1362689 0.07189997 -0.05111935
-0.09774575 0.04335194 0.0154438
-0.07459218 0.104032 -0.05756743
-0.08495687 0.123957 0.05234346
-0.1188572 0.04956296 0.02993494
-0.1248953 0.09202612 -0.05753049
-0.1253756 0.04304098 0.01449917
-0.08386423 0.04799436 -0.02716864
-0.1683807 0.1609453 -0.04804808
-0.1909427 0.1568933 0.01781146
-0.1270069 0.1202586 0.05730597
-0.1119409 0.1611214 0.0527805
-0.1053911 0.1382606 -0.04926407
-0.13256 0.05785631 0.04067121
-0.1482826 0.1436754 0.05655804
-0.1526809 0.08710273 -0.05665545
-0.1275366 0.1211739 -0.05746765
-0.09327614 0.0527258 0.03463362
-0.09385385 0.1377895 0.04362221
-0.08448547 0.1545126 0.02655854
-0.08469782 0.05363065 -0.03569872
-0.08990068 0.0800654 0.0546464
-0.09542166 0.06137141 0.04392903
-0.1807344 0.1458368 0.03740313
-0.1167301 0.044024 -0.01785423
-0.1900854 0.1629201 -0.0205711
-0.1087971 0.1359044 0.05110047
-0.1362717 0.1064318 0.05789789
-0.1293048 0.07485988 0.05259424
-0.09890408 0.04713329 0.02551368
-0.1512633 0.1216537 -0.05632555
-0.1094714 0.09585635 -0.05782006
-0.1041803 0.1610187 -0.04859019
-0.137303 0.0531894 -0.03516095
-0.1296342 0.1512476 0.05761391
-0.1705526 0.1226769 -0.05294342
-0.1408038 0.1100804 -0.05798095
-0.1059514 0.08951417 0.05713555
-0.07517874 0.1263941 0.05094637
-0.09125771 0.1102109 -0.05691082
-0.07666421 0.0443521 -0.01892195
-0.1167908 0.1351323 -0.05470791
-0.1674493 0.1040663 0.05777365
-0.07365356 0.1223195 -0.05305486
-0.08714775 0.1453645 -0.03534903
-0.08351342 0.09929433 -0.05797988
-0.1587402 0.1397166 0.05310703
-0.1863411 0.1464383 -0.03356983
-0.09191036 0.1632161 -0.03785837
-0.121179 0.05405073 -0.03624235
-0.1193793 0.1342948 0.05546908
-0.08169723 0.04565958 0.02209606
-0.1415413 0.0635899 0.04577663
-0.1915692 0.1469585 0.0258468
-0.1755949 0.1548232 0.0420396
-0.1493176 0.3885936 0.04804315
-0.1819877 0.4412737 -0.01989243
-0.1045942 0.4095418 -0.03937047
-0.1665877 0.4002621 -0.03971555
-0.1579227 0.3599585 -0.04515478
-0.1068941 0.3448089 0.04068119
-0.08656719 0.3447045 -0.009132388
-0.1705144 0.3953842 0.03592069
-0.1071754 0.4191356 0.0408431
-0.08994927 0.2188546 0.01981426
-0.1832899 0.433254 0.01568563
-0.1761058 0.1898321 -0.02979277
-0.09140801 0.3870129 -0.0232084
-0.1596137 0.2160026 0.04395942
-0.1758734 0.3463962 -0.03022103
-0.08590402 0.4118004 -0.0036148
-0.1773968 0.259717 0.02775272
-0.1298151 0.1987789 -0.04977265
-0.08596797 0.2652076 -0.004131159
-0.09520258 0.2794769 -0.02933026
-0.1581098 0.3998615 0.04456722
-0.1613676 0.2937049 0.04297121
-0.1802543 0.2851203 0.02290291
-0.0869998 0.3928836 -0.01104925
-0.1252756 0.3062125 0.04879804
-0.1225462 0.1773102 -0.05266623
-0.08993044 0.2689008 -0.02022745
-0.08590109 0.3774108 0.003702708
-0.1833389 0.3056058 0.01565375
-0.114329 0.3163751 -0.04535033
-0.1028973 0.3804285 0.03751126
-0.1063186 0.2170058 0.0403306
-0.1076103 0.320997 0.04122527
-0.08820727 0.3599288 -0.01560849
-0.1853543 0.4398956 0.007460921
-0.1758978 0.3416684 0.02986307
-0.1687593 0.2046934 0.03759989
-0.1415521 0.4255292 -0.05002647
-0.09605497 0.3788512 -0.03064646
-0.176514 0.175729 -0.03829137
-0.1700842 0.2254653 -0.03663699
-0.09458829 0.4029227 0.02816528
-0.091782 0.3006977 0.0235869
-0.09189087 0.2525506 0.02381203
-0.1634426 0.2823249 0.04158953
-0.1740602 0.3668756 -0.03260611
-0.1735526 0.2421497 -0.03313702
-0.1661857 0.2031994 -0.03987463
-0.08596152 0.3180967 -0.004109388
-0.1853554 0.316192 0.007549355
-0.1343873 0.2080407 0.04992486
-0.08968264 0.285157 0.01913431
-0.09075211 0.4316794 -0.02197688
-0.1243317 0.2692587 0.04863616
-0.14719 0.180688 -0.0497302
-0.108262 0.2306135 0.0416883
-0.0984851 0.3385297 0.03317521
-0.1633559 0.4407144 -0.04213692
-0.1570498 0.334824 -0.04551919
-0.1682079 0.3582364 -0.03840857
-0.141141 0.3275272 0.04957694
-0.1591985 0.2679352 -0.04447114
-0.113089 0.3829138 -0.04478151
-0.1859139 0.216615 0.002099724
-0.1717486 0.3273367 0.03473112
-0.1220338 0.1881339 0.04801711
-0.106455 0.2790121 0.04038844
-0.1530741 0.2769144 -0.04721544
-0.1843418 0.2659745 0.01223624
-0.1387114 0.2336341 0.04986561
-0.1562121 0.3930314 -0.04593443
-0.1044654 0.2601289 -0.03913948
-0.1227412 0.4097512 -0.04859877
-0.1121373 0.1969068 -0.04415619
-0.08628099 0.187217 0.006751463
-0.1473924 0.4412284 -0.04913951
-0.1504051 0.2377768 0.04780786
-0.09279062 0.3194184 -0.02582554
-0.08580509 0.2938821 -0.00254146
-0.1103681 0.3017312 0.04289553
-0.1853205 0.3466876 -0.007663937
-0.1855454 0.4144193 0.005590158
-0.08753105 0.3113807 -0.01329138
-0.08774641 0.2418628 -0.01417122
-0.1570245 0.3467457 -0.04553977
-0.185838 0.2643278 -0.002466997
-0.08627875 0.2787194 -0.007218412
-0.09651855 0.2314358 -0.03117504
-0.08684672 0.3408825 0.01035582
-0.1736909 0.3105046 -0.03304367
-0.1024971 0.3835146 -0.03752471
-0.1246111 0.3914736 0.04862052
-0.1312004 0.3072166 -0.04998094
-0.1738678 0.4157595 0.03228787
-0.1669228 0.4315418 0.03901748
-0.09970798 0.273806 0.03446542
-0.09215656 0.3002292 -0.0245854
-0.1603709 0.3183923 0.04349821
-0.1188874 0.3788591 0.0469292
-0.1335461 0.2509807 0.04985883
-0.1094642 0.2474221 -0.04266271
-0.1820975 0.2413593 0.01908473
-0.08588674 0.3304703 -0.003378965
-0.1694783 0.3266631 -0.03733134
-0.1767861 0.4387966 0.02849655
-0.1296433 0.2738513 -0.04981728
-0.08984553 0.3904314 0.01943366
-0.1311138 0.2831918 0.0497411
-0.1848389 0.3517429 0.01000966
-0.08850121 0.2084997 0.01632948
-0.1246056 0.3930045 -0.04898962
-0.1858305 0.3788187 -0.002859039
-0.1833259 0.3779745 -0.01618817
-0.1741287 0.2794872 -0.03244711
-0.1858275 0.2521646 0.002926091
-0.1616528 0.3202283 -0.04303992
-0.1042189 0.2309975 -0.03890174
-0.1415389 0.3083043 -0.04993533
-0.1851868 0.2031324 -0.008430044
-0.1264146 0.3498869 0.04895118
-0.0892638 0.2101642 -0.01836571
-0.1332013 0.2611622 -0.05012046
-0.1142175 0.4367806 0.04487245
-0.09846323 0.4315059 -0.03351174
-0.08831474 0.2318515 0.01565332
-0.1250828 0.3704095 -0.04907507
-0.1586616 0.4132012 -0.04487173
-0.1403449 0.3513806 -0.05009755
-0.1370772 0.3230404 -0.05019871
-0.151363 0.1978332 0.04750175
-0.09073501 0.1852002 -0.02174763
-0.1832817 0.2083191 0.01588682
-0.151408 0.4243941 -0.04782854
-0.1851092 0.3901433 0.008805429
-0.09050848 0.2000262 -0.02132182
-0.115647 0.2636114 0.04563983
-0.1147947 0.2069302 -0.04549676
-0.1698505 0.3882159 -0.0370033
-0.1851045 0.4340588 -0.009156325
-0.1826529 0.3583933 -0.01799255
-0.1790704 0.2300084 0.02523383
-0.1169194 0.4344153 -0.04664177
-0.1858729 0.3355696 -0.00112821
-0.08873785 0.3146385 0.01688848
-0.1782332 0.2129013 0.02657613
-0.1531745 0.1740003 -0.05431199
-0.1649905 0.2292794 0.04059428
-0.1483578 0.3181737 -0.04865145
-0.1072024 0.1854915 -0.04109741
-0.1854612 0.361653 0.006465533
-0.1024381 0.3535951 0.03716734
-0.08614551 0.3564169 -0.005961149
-0.1843863 0.3370457 0.01198659
-0.1338573 0.3981682 -0.05028727
-0.1065517 0.2705129 -0.04072895
-0.08579049 0.2527506 -0.0006230134
-0.1811145 0.357659 0.02118336
-0.09810413 0.4410666 0.0327768
-0.131334 0.4236154 0.04963766
-0.1232201 0.2386732 0.04832982
-0.1599691 0.2722473 0.04373647
-0.1014016 0.3057742 -0.03650947
-0.1825808 0.3230013 -0.01813385
-0.1405501 0.2218106 -0.04998665
-0.1304284 0.2264576 -0.04984868
-0.1517769 0.2353878 -0.04756829
-0.1293043 0.4433234 -0.0515028
-0.08769075 0.4298757 0.01329514
-0.177289 0.2184732 -0.02826973
-0.1293775 0.4190301 -0.04990945
-0.1425331 0.3728143 -0.04982264
-0.1459697 0.2692795 -0.04917327
-0.08996519 0.4493908 -0.03404716
-0.1857291 0.4124916 -0.005024524
-0.09689735 0.2347164 0.03131584
-0.1116363 0.3906061 0.04358583
-0.0920297 0.4404762 0.02390065
-0.1094529 0.2473895 0.04238957
-0.08926556 0.2748065 0.01816148
-0.177781 0.1938171 0.02724757
-0.09873933 0.4178692 -0.03381002
-0.1232308 0.2354624 -0.04856615
-0.08806536 0.2954244 0.01472326
-0.1054512 0.4305615 0.03947877
-0.1492925 0.296461 0.04812194
-0.1847791 0.2152794 -0.01093399
-0.1842007 0.2327431 -0.01298755
-0.1602487 0.3290104 0.04355105
-0.1626387 0.3697287 -0.04248771
-0.1068703 0.4439864 0.04318485
-0.09864317 0.1791663 0.03687284
-0.1856194 0.284573 -0.005645158
-0.1336903 0.3398701 -0.05022618
-0.1691816 0.3528196 0.03711446
-0.1151802 0.4091536 0.04531841
-0.08593465 0.231067 -0.003774199
-0.09274285 0.1936574 0.0253209
-0.1172088 0.2739822 -0.04661617
-0.0940313 0.4056603 -0.02773085
-0.08710982 0.2561998 0.0113848
-0.1798236 0.429651 -0.0241714
-0.09766193 0.3651473 0.03221088
-0.1630946 0.2499337 0.04184859
-0.08731671 0.4004751 0.01199955
-0.1379777 0.3473585 0.04983966
-0.1508084 0.4441407 0.04996857
-0.1442215 0.1813823 0.04969326
-0.1727102 0.2526842 -0.03399871
-0.1478614 0.3842974 -0.04885177
-0.1668842 0.3445312 -0.03943812
-0.1520191 0.4213047 0.04709238
-0.09935513 0.2509822 0.03412618
-0.1855606 0.2350631 0.005582027
-0.1225599 0.3683173 0.04803017
-0.1617511 0.2440666 -0.04292033
-0.08946197 0.4167008 -0.01906966
-0.1846909 0.3028834 -0.01131473
-0.08687031 0.1929395 -0.01032778
-0.1539934 0.1862987 0.04658297
-0.1778324 0.4276358 0.02698686
-0.1554711 0.2230306 -0.04612539
-0.1570491 0.1914026 -0.04540528
-0.1218921 0.2066181 0.04796023
-0.09705776 0.2043532 -0.03175721
-0.147157 0.4042424 -0.04907722
-0.1730793 0.2288067 0.03331963
-0.1776346 0.3060045 0.02737071
-0.185255 0.2542349 -0.008021521
-0.1863715 0.1773673 0.01978389
-0.09515107 0.2042771 0.02905867
-0.1238672 0.2218529 0.04853572
-0.1760378 0.2405963 0.02974023
-0.08855051 0.325534 0.01641017
-0.09421593 0.2570578 -0.02788051
-0.08751178 0.4029714 -0.01328056
-0.1838372 0.1799842 -0.01898158
-0.1000778 0.1893855 0.03490729
-0.1178123 0.2803383 0.04658008
-0.1600553 0.1734744 0.0515804
-0.1379651 0.2969428 -0.05014433
-0.09922099 0.32357 0.03393252
-0.1476825 0.2061725 -0.04876319
-0.1698482 0.3074789 0.03657041
-0.1855697 0.4002099 -0.006065009
-0.1379454 0.1771356 -0.05446436
-0.1300437 0.4317343 -0.04997825
-0.1057968 0.1975242 0.03993594
-0.16412 0.293521 -0.04153812
-0.1531407 0.284017 0.046806
-0.1611981 0.3463531 0.04304295
-0.1856802 0.358795 -0.005303874
-0.1026329 0.31567 -0.03758892
-0.1287909 0.3226643 0.04936489
-0.1601159 0.1807386 -0.04476327
-0.1667479 0.1788564 0.04273908
-0.08758293 0.3748607 -0.01356717
-0.09972983 0.2955603 -0.0348217
-0.1809642 0.2002452 -0.02183888
-0.09772386 0.1785234 -0.03696415
-0.174771 0.3165573 0.03135548
-0.1849742 0.3868353 -0.00997736
-0.1762826 0.3292856 -0.02967278
-0.1468408 0.362246 0.04860106
-0.1478249 0.2460389 -0.04875255
-0.1003709 0.2184574 -0.03547816
-0.08612815 0.4377741 -0.005854145
-0.1845109 0.282536 0.01148874
-0.09164667 0.3336196 0.02332845
-0.09843475 0.3286228 -0.03339795
-0.1541664 0.3099244 0.04642353
-0.1555205 0.2583254 0.04597831
-0.1767642 0.3968241 -0.02909731
-0.2016208 0.4923491 -0.01228075
-0.1908068 0.5570335 -0.03862333
-0.156357 0.5788842 -0.01952501
-0.2018881 0.4903393 0.0140012
-0.1977553 0.5217438 0.02964045
-0.1987969 0.4921046 0.04490559
-0.1990043 0.4666426 0.01476274
-0.1927317 0.4827967 0.04136816
-0.1903041 0.5045888 0.05414269
-0.1922403 0.5635806 0.01055415
-0.1883758 0.5728918 0.01145044
-0.1989134 0.5109277 -0.04779578
-0.1955426 0.538551 0.03027715
-0.2017603 0.4817882 0.03395134
-0.1951413 0.5415645 -0.01312603
-0.1997588 0.5065318 0.03725037
-0.2032366 0.4800934 0.009412589
-0.1723804 0.5596992 0.04547482
-0.1853962 0.5075904 -0.05590231
-0.2023757 0.4866233 -0.00152649
-0.2031459 0.4761444 0.02431433
-0.1983977 0.4985473 -0.04848577
-0.1970205 0.5273335 0.04076041
-0.1921578 0.5463041 -0.04655654
-0.1728292 0.5536184 -0.05027109
-0.1944818 0.546595 0.01345704
-0.1954246 0.5393959 -0.03441086
-0.1923486 0.5150404 -0.05618811
-0.1931398 0.5567611 -0.02122132
-0.1970404 0.5136182 0.05122447
-0.2001482 0.5035456 0.001395268
-0.2034277 0.4786205 -0.01712489
-0.1971582 0.5223703 -0.0493935
-0.158136 0.5815634 0.007672196
-0.1768693 0.5781047 -0.02050465
-0.1838915 0.5740864 0.02230853
-0.1973451 0.5248059 -0.03789744
-0.1786511 0.5796614 0.0126484
-0.1908823 0.5693343 -0.003654666
-0.2017655 0.4912399 -0.02495599
-0.1970141 0.5273426 -0.009511306
-0.1874131 0.5463811 0.0509124
-0.1940751 0.5496953 0.02695375
-0.1936641 0.5527971 0.001616467
-0.2039224 0.4748755 -0.001501133
-0.1889745 0.5638785 0.03247377
-0.1994248 0.4828708 -0.03890805
-0.1977326 0.5218971 0.005850529
-0.198594 0.5153606 0.0140644
-0.1453149 0.5763489 0.01172294
-0.1892195 0.5322371 -0.05614214
-0.1948043 0.5441154 -0.02468678
-0.1824231 0.5475674 -0.05305568
-0.1803997 0.5098879 0.05589627
-0.1905998 0.5664064 0.02184833
-0.1993372 0.5096807 -0.02991169
-0.1860375 0.5329599 0.05653033
-0.1875557 0.5729444 -0.0163573
-0.1433333 0.5806109 -0.01391577
-0.1939757 0.53394 0.0505096
-0.1555401 0.579137 0.01806265
-0.1720769 0.5436362 0.0542778
-0.1677079 0.5702108 -0.03554747
-0.200822 0.4984459 0.02480191
-0.1723601 0.5710957 0.03367663
-0.1958921 0.5345343 -0.04547912
-0.1963376 0.5325007 0.0152691
-0.2012681 0.4950083 -0.0368168
-0.1533976 0.5819657 -0.004803083
-0.1846108 0.5567118 0.04564743
-0.1836368 0.5728577 -0.02626612
-0.1792585 0.5808601 -0.00145394
-0.1935663 0.5535302 -0.01064238
-0.193488 0.5491979 0.03966362
-0.1909452 0.4865887 -0.04526308
-0.1982391 0.5180305 -0.01824494
-0.1998267 0.5059778 -0.01058992
-0.1779367 0.5655466 -0.04072078
-0.1618815 0.5734121 0.0302521
-0.1625828 0.5537319 -0.05020755
-0.1726651 0.5400792 -0.05609403
-0.1957137 0.5372291 0.001618401
-0.1714411 0.5765939 0.02441645
-0.197111 0.4669499 -0.01645297
-0.1424844 0.5834798 0.00308278
-0.1665544 0.5789393 -0.01933587
