VERSION .7
FIELDS x y z
SIZE 4 4 4
TYPE F F F
COUNT 1 1 1
WIDTH 61
HEIGHT 1
VIEWPOINT 0 0 0 1 0 0 0
POINTS 61
DATA ascii
-0.1817023 0.9748837 0.008934396
-0.1863882 1.005865 -0.0156249
-0.1700831 1.02682 -0.03475504
-0.189422 1.026742 -0.001105329
-0.1857179 1.027341 -0.01643091
-0.1627846 0.9947677 0.03291791
-0.1823116 0.9950755 -0.03465204
-0.1659338 0.9758388 0.01198233
-0.19115 0.9901651 0.004134923
-0.18515 1.016899 0.00809459
-0.160543 0.9751586 -0.01140421
-0.19115 1.014998 0.01799668
-0.1743028 1.039979 -0.003090584
-0.1659582 1.047889 -0.007487412
-0.19115 0.9867176 -0.01050308
-0.18415 0.9752685 -0.002122671
-0.1718264 1.034665 0.02825764
-0.1830681 1.042827 -0.02060241
-0.1778342 1.002929 0.03576794
-0.1669402 1.041227 0.02138722
-0.168217 1.016048 -0.03793728
-0.1903016 1.005196 0.01379824
-0.18415 1.035641 0.02738483
-0.1832098 1.04616 0.01239292
-0.182528 1.029716 0.0179511
-0.19115 1.03503 0.006884485
-0.1601104 1.021916 0.03502519
-0.1766514 0.9804403 0.02081729
-0.1872654 1.019978 0.02936975
-0.1695304 0.9819769 -0.024374
-0.19115 1.012997 -0.02732564
-0.1799088 0.980774 -0.02283369
-0.1733622 1.017402 0.03609418
-0.1899171 1.040514 -0.0118114
-0.1582541 1.048403 0.001906616
-0.1903916 0.9917387 0.02406009
-0.1812671 1.047834 -0.00778683
-0.1840376 0.9927802 -0.02087283
-0.1905684 1.029538 -0.02625846
-0.1691461 0.9925739 -0.03336577
-0.1897701 1.042552 -0.0009700337
-0.1785142 0.9895422 0.02989004
-0.1831014 1.006651 -0.03802921
-0.1883238 1.005621 0.030166
-0.1735068 0.9765921 -0.01541671
-0.1670527 1.036599 -0.0281934
-0.1645467 1.002252 -0.03723675
-0.18515 1.000351 -0.004816726
-0.1724634 0.9735804 -0.001087398
-0.1865127 0.9839109 0.01515194
-0.15665 0.9754541 0.002704367
-0.1613696 1.046196 0.01227498
-0.1700332 1.047843 0.006140389
-0.1846812 1.012487 -0.003964215
-0.19115 0.9992181 -0.02778994
-0.1723853 1.054057 -0.002768136
-0.1682735 1.043944 -0.01876234
-0.19115 1.018337 -0.01624521
-0.1779194 1.020877 -0.03694468
-0.1662311 1.006557 0.03642675
-0.18515 1.007007 0.004592752
