VERSION .7
FIELDS x y z
SIZE 4 4 4
TYPE F F F
COUNT 1 1 1
WIDTH 128
HEIGHT 1
VIEWPOINT 0 0 0 1 0 0 0
POINTS 128
DATA ascii
-0.141601 0.9719889 -0.01941729
-0.1236139 1.037034 0.02613964
-0.07250126 0.9799496 0.008543365
-0.1263357 1.01966 -0.0372453
-0.1157086 1.045746 0.01327639
-0.0843608 0.9946482 0.03277047
-0.1217535 1.004788 -0.03782735
-0.09696884 1.035581 0.02301701
-0.1550339 0.9737507 0.001623988
-0.1509587 0.9967872 0.03385423
-0.09603004 1.009212 -0.03822118
-0.1522558 1.012898 0.03647565
-0.09852535 0.9891956 0.03511778
-0.1193648 1.04808 -0.006137284
-0.1298638 1.007479 0.03650178
-0.1334387 1.002514 -0.03724145
-0.1045714 0.9701086 0.03644696
-0.08993014 0.989399 -0.03339046
-0.1291007 0.9844055 0.03081526
-0.1478599 0.9826088 0.0235115
-0.1133267 0.9837452 0.03647922
-0.1447399 1.048455 -0.003473037
-0.09022202 1.01824 -0.03758929
-0.07188009 0.9674509 0.00305884
-0.134444 1.034457 -0.03005381
-0.1083718 1.023524 -0.03616024
-0.142288 1.00797 -0.03814782
-0.1246605 0.9929115 0.03379701
-0.1126594 0.9799438 -0.03807314
-0.1507348 1.025386 -0.03541656
-0.0975188 0.9809681 -0.03636601
-0.125847 1.023878 0.03439691
-0.1377381 1.018161 -0.03760779
-0.1517381 1.038795 0.02423838
-0.1110062 0.9699358 -0.03817045
-0.123767 0.9760764 -0.035235
-0.115066 1.027933 0.03262365
-0.1019185 1.014335 0.03645847
-0.1068403 1.043206 -0.01994698
-0.1385154 0.988207 0.02874925
-0.1381733 0.9845047 -0.02736637
-0.09215604 0.9749979 0.0326058
-0.1531381 0.9768121 0.01401101
-0.1327619 0.9698304 -0.0298376
-0.07854623 0.9742554 0.02067248
-0.1372964 1.033551 0.02911621
-0.1466926 0.9893821 -0.03129376
-0.08658466 0.9703819 -0.03060334
-0.1345232 1.047038 0.009612894
-0.1457132 1.041027 -0.02323871
-0.07276683 0.9680978 -0.009507234
-0.07246746 0.977689 -0.01767755
-0.1128523 1.033162 -0.03094625
-0.1334423 0.9745983 0.02772075
-0.1104498 1.036183 0.02693433
-0.1078657 1.001266 0.03666853
-0.1440603 1.042938 0.01879141
-0.1333089 1.048222 -0.005454835
-0.1414363 0.9766494 0.01813079
-0.1457452 0.9706651 0.007297392
-0.1069186 1.048193 0.00398396
-0.09991571 0.9705009 -0.03704193
-0.1049107 0.993464 -0.03798091
-0.1426277 1.003368 0.03588014
-0.1022655 1.044762 0.01548948
-0.1200123 1.04278 -0.02063875
-0.1169231 1.016586 0.03627031
-0.1226223 0.9922435 -0.0358499
-0.1453001 0.9685733 -0.01045866
-0.1360977 1.017963 0.03605225
-0.07139244 0.9774065 -0.005914322
-0.0909185 1.014786 0.03641952
-0.1473222 1.03032 0.03135778
-0.05212541 1.018148 -0.02508129
-0.06928699 1.033085 0.02954378
-0.07377969 1.039072 -0.02568316
-0.0591016 1.013632 0.03507036
-0.06108247 1.034521 -0.02791782
-0.07528514 1.045615 -0.0153127
-0.05246177 1.032331 -0.01249342
-0.05685115 1.005763 -0.03540723
-0.05195001 1.02557 -0.003848913
-0.05505162 1.023111 0.02855313
-0.08903723 1.047721 -0.008653626
-0.08547269 1.046925 0.01013438
-0.05195001 0.9909627 0.006396517
-0.05866917 1.000931 0.03413922
-0.05195001 1.011926 -0.01287077
-0.08394293 1.034708 -0.02985536
-0.08410648 1.036637 0.0266038
-0.07732856 1.048333 -0.004761877
-0.06096876 1.036032 0.02476143
-0.08254323 1.00637 0.03764379
-0.05257086 0.9981319 0.02645344
-0.0726437 0.9899758 0.03169677
-0.0601965 0.977163 -0.01678741
-0.05195001 1.007109 0.01610103
-0.05900245 1.043102 -0.0119024
-0.06979363 1.014512 0.03652044
-0.05195001 1.029026 0.0059288
-0.07709957 1.01137 -0.03828894
-0.06310941 0.9852973 0.02642765
-0.0538968 0.9775283 0.007744189
-0.06922276 1.022941 -0.03635221
-0.05195001 1.000913 -0.002660628
-0.05340707 0.9883513 0.02304252
-0.09396484 1.039305 -0.02731929
-0.05242337 0.9912035 -0.02409413
-0.05811477 1.043147 0.007439584
-0.05195001 0.9824269 -0.003434899
-0.07114646 0.9997805 0.03492095
-0.05222137 0.9836218 -0.01516544
-0.05195001 1.014612 0.004681441
-0.06349496 0.9751346 0.009930728
-0.09331615 1.048437 0.00205921
-0.05297726 1.008089 0.02895933
-0.06795439 0.9947903 -0.03454512
-0.05206539 1.023943 0.01900765
-0.06739105 1.006958 -0.03806191
-0.05195001 1.007064 -0.02192958
-0.08107243 1.022631 0.03483489
-0.07706768 1.044681 0.01575573
-0.07087921 1.048335 0.003209096
-0.06244847 0.9846855 -0.02742731
-0.09768166 1.046222 -0.01705159
-0.05705846 1.020761 -0.03348701
-0.05195001 0.9954045 0.01536125
-0.05909328 0.9793496 0.01888146
