VERSION .7
FIELDS x y z
SIZE 4 4 4
TYPE F F F
COUNT 1 1 1
WIDTH 135
HEIGHT 1
VIEWPOINT 0 0 0 1 0 0 0
POINTS 135
DATA ascii
-0.09287384 0.8955164 -0.03453877
-0.07732846 0.9389215 0.02918041
-0.1320494 0.9369946 0.02890916
-0.07102835 0.9032636 0.03442896
-0.1300705 0.9558028 0.03030845
-0.131292 0.9140874 -0.03081422
-0.08559751 0.9040854 0.03467031
-0.1075735 0.9020435 0.03680089
-0.1341403 0.909677 0.02730826
-0.09975394 0.9242387 0.03640556
-0.06442007 0.933279 -0.03411292
-0.1465376 0.9099094 0.0008455234
-0.1223928 0.9151593 -0.03566709
-0.1218931 0.9330423 -0.03590151
-0.07762113 0.9530495 -0.02080882
-0.06644587 0.9092034 -0.03741203
-0.07952441 0.921025 0.03653099
-0.08313805 0.9161234 -0.03814052
-0.1352503 0.9357853 -0.02750294
-0.1443375 0.9222926 -0.01361619
-0.1386235 0.9545665 0.02233427
-0.1450832 0.9504082 0.009863608
-0.1407878 0.9568503 -0.02069575
-0.08118127 0.8969566 -0.03257165
-0.1246438 0.9040365 0.03344712
-0.09976712 0.9483224 -0.03694933
-0.06836154 0.926457 0.03545431
-0.1094468 0.9226969 -0.03813864
-0.07348558 0.9265018 -0.03673203
-0.09736322 0.9322072 -0.03653906
-0.08021057 0.8807191 -0.003117909
-0.0893287 0.9614155 -0.03240333
-0.1196856 0.9211087 0.03526466
-0.09041358 0.9196148 0.03670619
-0.08969265 0.8931533 0.03159285
-0.1464995 0.9400327 -0.003657224
-0.1430271 0.9612825 0.01494123
-0.141765 0.9079541 0.01770241
-0.1414473 0.9446946 -0.01960446
-0.1321328 0.9558591 -0.030285
-0.1465569 0.9528227 -0.001073688
-0.06660964 0.8896699 -0.0268889
-0.1203013 0.9432606 -0.03646611
-0.08313026 0.9315523 0.0335589
-0.123603 0.9397179 0.03388178
-0.1444815 0.9113042 -0.01310126
-0.09032217 0.9512253 0.03163302
-0.1086051 0.9424303 0.03675736
-0.1453887 0.9339368 0.008824615
-0.1439776 0.933375 -0.01443049
-0.08251436 0.9324591 -0.03441808
-0.06732927 0.8820544 -0.01543963
-0.1390682 0.9352493 0.02177615
-0.064551 0.9527463 -0.009637202
-0.1460122 0.9626474 0.00510655
-0.07504103 0.8897822 0.02551327
-0.07548989 0.8850011 -0.02098553
-0.1310336 0.9256319 -0.0310133
-0.1030694 0.9593303 0.03612722
-0.1016537 0.9070903 -0.03773876
-0.09302905 0.9189596 -0.0380409
-0.144489 0.9238343 0.01173009
-0.06727293 0.8789331 -0.0008827649
-0.07279662 0.962082 -0.009276369
-0.09139998 0.9429089 -0.03355585
-0.1464403 0.9295081 -0.004087397
-0.1077263 0.9321474 0.0367577
-0.0969789 0.9391855 0.03469831
-0.07927653 0.9059548 -0.03659249
-0.1083624 0.9142609 0.03684237
-0.1327968 0.92364 0.02837881
-0.1195884 0.9542073 -0.03671601
-0.1141348 0.957325 0.03644328
-0.07239743 0.953238 0.00834481
-0.07634925 0.8790394 0.008966301
-0.100904 0.95842 -0.03722241
-0.06859101 0.9417017 -0.02829942
-0.1162852 0.8856602 -0.03739805
-0.1151121 0.8594307 0.02426762
-0.09979752 0.8645214 -0.0349218
-0.07801343 0.8650601 -0.02048301
-0.1211469 0.8622365 -0.02989624
-0.1418235 0.8787748 0.01777656
-0.1287741 0.8929352 0.03131888
-0.1361758 0.8724982 0.02489814
-0.1286443 0.8610393 -0.02166165
-0.09585468 0.8637882 0.03210795
-0.1217726 0.8664716 0.03251431
-0.08803698 0.8592517 0.01841109
-0.1144792 0.8749027 -0.0376885
-0.1102481 0.8799353 0.03687224
-0.1466117 0.8874488 0.000754874
-0.110303 0.8592349 0.01494274
-0.1341146 0.8717747 -0.02797068
-0.08831928 0.8591875 -0.01481416
-0.144008 0.8911989 -0.01441973
-0.1430115 0.8671719 0.00582429
-0.1406472 0.8943241 0.01970574
-0.1263297 0.8781455 -0.03389036
-0.101461 0.8713888 0.03610975
-0.09519476 0.8592162 0.003246493
-0.1002815 0.8591875 -0.01480772
-0.09464821 0.8592319 -0.02425273
-0.0818914 0.86897 0.02516284
-0.1177031 0.8972695 0.03062597
-0.08520892 0.8592244 0.008366089
-0.09339277 0.8735609 -0.0345787
-0.0744012 0.8687426 0.01347644
-0.07940032 0.8748461 -0.0246115
-0.1081051 0.8599331 -0.02952088
-0.1463759 0.8751659 -0.003733318
-0.07601647 0.8602768 0.003721489
-0.1120454 0.8664296 0.0352593
-0.07273145 0.8659935 -0.008953633
-0.1365707 0.8874154 -0.026149
-0.1417229 0.8666 -0.01081302
-0.1235289 0.8784469 0.03403219
-0.1420259 0.877579 -0.01859268
-0.120376 0.8592124 0.0008381262
-0.1311714 0.8597982 -0.0114867
-0.1466423 0.8975781 -0.0003107998
-0.1452221 0.8919981 0.009562458
-0.08966629 0.8766325 0.03142842
-0.1003833 0.8592489 0.02372656
-0.1264582 0.8918033 -0.0338647
-0.1347457 0.8849677 0.02679143
-0.1311163 0.8595351 0.006378812
-0.1165686 0.8591774 -0.02123016
-0.1101498 0.8592136 0.001576012
-0.1293139 0.8615487 0.02092448
-0.1202589 0.8592299 0.01184041
-0.1368809 0.9004469 -0.02767965
-0.08209103 0.8592016 -0.006016185
-0.1452595 0.9010894 -0.01069742
-0.1042808 0.8764135 -0.03776092
