VERSION .7
FIELDS x y z
SIZE 4 4 4
TYPE F F F
COUNT 1 1 1
WIDTH 1452
HEIGHT 1
VIEWPOINT 0 0 0 1 0 0 0
POINTS 1452
DATA ascii
0.06068623 0.01345652 -0.04123143
-0.0518721 0.03007116 0.0258104
0.03324354 0.02464573 -0.04746357
0.01434351 0.0200801 0.07202624
-0.05052879 0.02576441 -0.02846836
0.07179208 0.007155277 -0.01529353
-0.07336591 0.02379362 -0.001505859
0.09970044 0.02044805 0.001418948
0.04351499 0.008636966 -0.04987245
0.05396463 0.02516448 -0.02088748
0.02339192 0.01659751 -0.06960215
0.08923446 0.01042993 0.0006041527
-0.07334407 0.01104494 0.004617818
-0.01728837 0.01003778 0.07130039
-0.02288768 0.01265546 -0.06979051
0.07005905 0.01882293 0.02216882
0.07232109 0.01515821 0.01306056
0.001733612 0.01916579 -0.07336591
-0.06787946 0.0229619 0.02800343
0.07248105 0.01806688 -0.01185719
0.107991 0.01175424 0.00350441
-0.03207867 0.0247962 0.04829499
-0.07230858 0.01991019 0.01314577
-0.05758299 0.0235933 0.03248967
-0.06556663 0.01424812 0.03294337
0.05741891 0.02148318 -0.03248968
0.07529986 0.02063147 0.0001315325
0.06916244 0.02286005 -0.02456896
0.02839337 0.1144101 -0.05049957
0.001422642 0.1321114 0.005319674
0.05710214 0.04878455 -0.009421743
0.01737631 0.04212438 -0.05526888
0.04832398 0.07433058 0.03193673
-0.05994902 0.1477554 -0.03153376
-0.01321458 0.1388845 0.002891257
-0.0705 0.09513992 -0.03938543
0.02393794 0.05029268 -0.05280933
0.03973602 0.1047709 0.04210969
0.04906699 0.08953221 0.0307502
0.01978485 0.09331989 0.05440606
-0.06425656 0.1246946 -0.05198712
0.009615017 0.03395899 0.04923133
-0.04146339 0.0430028 -0.04038482
-0.01409423 0.1207693 -0.05660663
0.002156166 0.131772 0.01769165
0.04299904 0.1128727 0.03432805
-0.02666041 0.06376161 -0.05152363
-0.05889015 0.1160591 -0.05544735
-0.03462176 0.1276036 0.05075137
0.04614994 0.09232794 -0.03482102
0.02068659 0.1202651 0.05407228
-0.02401679 0.08437739 0.0562344
-0.02823149 0.07178068 0.05258802
-0.03067154 0.04313016 -0.04914885
0.01507679 0.1117888 0.05596416
-0.04573934 0.05846362 -0.04121664
0.001567782 0.08351639 -0.05795151
-0.0281002 0.1349499 -0.05080365
-0.04660877 0.07595497 0.05304994
-0.001284596 0.1333641 -0.02967795
0.01926751 0.123854 -0.04206821
-0.0164979 0.1404037 -0.02679252
0.05287711 0.05145872 -0.02346572
-0.01404298 0.07889491 0.05672406
0.05750456 0.09978826 -0.0065209
0.05234867 0.06810975 0.0248131
0.04873146 0.05623768 0.03130285
-0.02579512 0.05511867 0.05172848
0.04408608 0.03852873 -0.03734337
0.01484103 0.05672979 -0.05595533
0.02854014 0.1195633 0.04150201
-0.00447482 0.1272671 0.05781876
0.05477929 0.0937753 0.01877236
-0.008818479 0.1368503 0.048278
0.02667895 0.1204245 -0.01994705
-0.003343464 0.09804016 -0.0579002
0.01644037 0.1251622 0.04389835
-0.018549 0.1301588 0.05489023
0.03771779 0.1153165 0.00267406
-0.06969736 0.09065174 0.05734105
-0.05749998 0.1503815 0.02689394
0.03592955 0.1025967 -0.04530843
-0.06005713 0.04845063 -0.02804124
-0.009178498 0.1370168 -0.05380479
-0.02343022 0.07778102 -0.05503277
0.02493255 0.1212326 0.01728582
0.05723811 0.05993931 -0.00827565
-0.02535385 0.1445017 0.002577223
-0.05025053 0.05681073 0.03917332
-0.06640516 0.04216117 -0.01064303
-0.0219575 0.09557021 -0.0578704
-0.01041034 0.09041828 -0.05785219
-0.03981138 0.1511916 0.03924516
0.05318323 0.08851415 -0.02284377
-0.01475547 0.03980378 0.05605986
-0.05874746 0.1381814 -0.04284516
0.04470706 0.06033816 -0.03668978
-0.007065091 0.0366918 -0.05741674
-0.04358095 0.0914657 -0.05747525
0.01153113 0.08993065 -0.05678249
0.05785921 0.04421785 -0.0001437739
0.01073752 0.1249376 0.05688624
-0.00422353 0.06412606 -0.05782846
-0.02396861 0.09862836 0.05797761
-0.06422202 0.07903317 0.05433853
-0.05763339 0.1055991 -0.05762415
-0.02674121 0.1451436 -0.04078848
-0.00299361 0.1341549 -0.008786764
-0.038996 0.08468913 0.05602904
-0.05577391 0.03430565 0.015046
0.04496471 0.1099748 -0.03659166
-0.04172389 0.1342513 -0.04609244
-0.0478058 0.1004162 0.05796291
-0.007009175 0.136013 0.03241449
-0.05687753 0.03784315 -0.0104082
0.05385659 0.1078486 0.003807737
0.03370991 0.04463765 -0.04702482
-0.0456598 0.1538979 -0.008742522
-0.01327719 0.06850702 -0.05640332
0.03580748 0.08451024 -0.04543247
0.05322978 0.06561149 -0.02257933
-0.04736008 0.1546846 0.02212981
0.0411138 0.06941266 0.04080664
0.02528046 0.1210716 -0.003440013
-0.06428419 0.07459708 -0.05251183
0.01335493 0.07579561 -0.05626077
-0.06075335 0.1320291 0.0477703
0.01657111 0.1251017 -0.01633375
0.02194088 0.122617 0.02771806
0.008460004 0.1239109 -0.05728147
0.05587734 0.03913525 0.01467685
0.03818189 0.0490819 0.04356117
-0.05462009 0.1580441 -0.001748018
-0.03105266 0.1471387 0.02606739
0.05745688 0.09425575 0.00762026
0.03922861 0.03801552 0.0424027
-0.03913874 0.143703 -0.04270434
0.01361986 0.05410061 0.0562594
0.03411362 0.1169842 -0.03102512
-0.05928862 0.04127108 0.003934246
-0.01099268 0.1086111 -0.05781162
0.05511945 0.05782299 0.01789167
0.03910532 0.1146744 -0.01443669
-0.03239238 0.05323528 -0.04791282
0.01341728 0.1265611 0.01988694
-0.04272592 0.07654299 -0.05328888
0.01864504 0.03850759 0.05467826
-0.04445452 0.1225432 -0.05296985
-0.03280274 0.1479485 -0.02459266
-0.05936991 0.06307655 0.04537234
0.05779744 0.08042945 0.003197137
-0.01963094 0.1418535 0.02955714
-0.009272797 0.1370605 -0.03619114
-0.03258631 0.09740623 -0.0579675
0.03397536 0.1170482 0.01980889
0.01746304 0.1196547 -0.0551846
-0.05938101 0.1062977 0.05754546
0.05749181 0.06403537 0.00700799
0.05144221 0.1089658 0.01390944
0.0009206152 0.1323437 -0.04343326
-0.05781412 0.1570538 0.008692577
0.02202279 0.1033109 -0.05346024
-0.00611132 0.09176451 0.05790862
-0.03181203 0.1474901 -0.00770608
0.04308232 0.09085566 0.03871365
0.007551517 0.04618136 0.05743434
0.01177817 0.09945323 0.0566739
-0.0466686 0.1440683 0.037413
0.009810524 0.12823 -0.007684154
-0.03409273 0.1127457 -0.05633165
-0.07000789 0.1262786 0.0511247
-0.05098088 0.04087213 -0.02742791
-0.05968469 0.09561965 0.05788776
0.02707474 0.05578497 0.05115898
-0.03032762 0.1468032 0.01173746
-0.0187525 0.141447 0.0120455
0.02239792 0.09035637 -0.05333554
0.04336781 0.04909834 -0.03839209
-0.009815948 0.05010509 -0.05713484
0.001867195 0.1143159 -0.05792845
-0.0549549 0.05507077 -0.03743006
0.02359862 0.06625684 -0.05292782
-0.0507464 0.1562516 -0.02632253
-0.05831463 0.0935722 -0.05772531
0.0166484 0.125066 0.0002330281
-0.05356557 0.0648008 -0.04659022
-0.02138234 0.0528786 -0.05383481
-0.04669108 0.1274942 0.05039515
-0.07031963 0.04723228 0.02570171
0.05611899 0.07652862 0.0144155
0.03689498 0.08545299 0.04470257
-0.05350627 0.04190368 0.02203229
-0.007463682 0.07662168 -0.05752223
0.04726117 0.1109005 -0.02109541
-0.00465031 0.1613557 -0.04493228
0.05189095 0.1459718 0.01950296
0.01916282 0.1579143 -0.04208138
-0.0001908122 0.1594245 0.05105869
0.05519672 0.1252332 0.01773868
-0.021739 0.1636055 -0.03713131
0.0574787 0.1143503 -0.007672479
0.04775356 0.1485324 -0.02540182
-0.02163664 0.1593968 0.05153239
0.01198994 0.1563446 -0.05114464
-0.01986978 0.1633594 -0.0040945
0.01091141 0.1593069 0.03649516
0.001263679 0.1605771 0.04088905
9.623822E-06 0.1607422 -0.02548901
-0.01790687 0.1631009 0.02188836
0.007468326 0.1293139 0.03224397
-0.05466184 0.1621798 0.02125423
0.05439311 0.1356121 0.02011621
0.03510481 0.1561218 0.01019719
-0.03698464 0.1656126 0.02439642
0.02341192 0.1274331 -0.05304927
0.05344277 0.1463607 -0.01290131
0.0411419 0.1552865 -0.006622113
-0.05153528 0.1659133 -0.02121551
0.05122421 0.1505158 -0.001811624
-0.03605502 0.1654902 0.003264129
0.03908257 0.1349203 0.04282948
0.02464391 0.157499 0.006115325
0.04562092 0.1290564 -0.03579286
0.01632749 0.1439971 0.05564617
-0.02166385 0.1440911 -0.05534194
0.0356468 0.153526 -0.03607715
0.01288111 0.1268092 -0.02778596
-0.01761297 0.1630622 -0.0227424
-0.01235222 0.154913 -0.05588991
0.03895614 0.1547897 -0.02561989
-0.03484518 0.1603104 -0.04514064
-0.009503582 0.1619946 0.04499384
-0.0002534599 0.1328869 -0.05642273
-0.01142102 0.1516853 0.05673902
0.02894229 0.1395407 -0.05022135
-0.0327762 0.151847 0.04954719
0.04073391 0.1192996 -0.04124613
-0.002342258 0.1610518 0.008138418
0.03178094 0.1563251 0.03145304
-0.0140635 0.1625949 0.006049737
0.03811334 0.1185085 0.04564959
-0.001178943 0.1608987 -0.01239508
-0.04285394 0.1575933 -0.03906706
-0.02987181 0.1482792 -0.05142306
-0.03873206 0.1658426 -0.02325173
0.01567477 0.1567051 0.04854314
-0.01734807 0.1630274 0.03596648
-0.04055766 0.1515369 0.008480173
-0.0008637146 0.1608572 0.02544821
0.05712271 0.1319181 0.01001728
0.04685269 0.1343346 0.03414528
-0.05163091 0.1675408 0.002763242
0.05617035 0.1246325 -0.01439165
-0.02690459 0.1642855 0.03081071
0.03313923 0.1274001 0.04754884
-0.02547559 0.144558 -0.01746565
0.01518983 0.1587437 0.01935091
0.006515516 0.1598857 -0.03923852
0.014703 0.1399825 -0.05607674
-0.003525392 0.1472864 -0.05788231
0.007121122 0.1294745 -0.01724599
-0.04474395 0.1666341 0.01169594
-0.005690356 0.1614926 -0.03497496
0.05798507 0.1263278 -0.0008633733
0.05099381 0.1223439 0.0275648
0.05567411 0.1434654 0.009003699
0.0425434 0.1455084 -0.03729033
0.0227412 0.1222466 -0.0304954
-0.05328069 0.1574243 -0.01500054
0.04132846 0.1136457 0.01201962
-0.02426322 0.1639378 0.005374178
-0.02144616 0.1426935 0.04115104
0.02122846 0.1579487 -0.02437138
-0.04611651 0.1635308 0.0329878
0.03764834 0.1292577 -0.04406054
0.05673748 0.1085979 -0.01772424
-0.009097163 0.1619411 -0.006229304
-0.1305232 0.5487584 -0.05209228
-0.07064971 0.5290689 -0.05671865
-0.1233847 0.4536458 0.01675843
-0.1112143 0.5445555 0.05451851
-0.1944082 0.4702506 -0.007208854
-0.165069 0.5336585 -0.0114173
-0.168719 0.5224098 -0.0576117
-0.168307 0.4802958 0.04804978
-0.1186133 0.5809654 -0.01100118
-0.1468015 0.5445718 -0.05391785
-0.1213711 0.5516295 0.05131366
-0.1433677 0.5115403 0.0581434
-0.1520942 0.4555289 0.05594237
-0.1756876 0.5107185 -0.02107859
-0.122651 0.4537031 -0.055281
-0.08806388 0.5593398 0.04632922
-0.08580005 0.4829865 0.04079395
-0.1643198 0.499783 0.05367194
-0.1592588 0.5462006 0.006322927
-0.1785577 0.4539661 -0.0389129
-0.1073314 0.5604978 -0.04473532
-0.09390554 0.5233184 -0.05764206
-0.07328999 0.5729085 -0.03067346
-0.1158418 0.4560708 0.05461168
-0.166233 0.5311329 0.0008838959
-0.1121944 0.5675124 -0.03810513
-0.1540828 0.5573727 0.02343303
-0.1883498 0.4833652 -0.03474503
-0.159187 0.5463394 0.02694288
-0.1716163 0.5195136 -0.01696739
-0.09110104 0.5254861 0.05832184
-0.1551574 0.5551002 -0.03897341
-0.1336216 0.499481 0.05822455
-0.1361259 0.4536816 -0.02833199
-0.07681824 0.582022 0.004195518
-0.1651832 0.4810073 -0.04955575
-0.1611016 0.5422359 -0.01588294
-0.1889448 0.482035 0.02107051
-0.08935855 0.5721036 0.03291105
-0.1394666 0.5815711 -0.007468699
-0.1754717 0.5112025 -0.04312528
-0.09815641 0.46676 -0.04370724
-0.1294075 0.4844584 -0.05730751
-0.08163184 0.4536679 -0.01113892
-0.1917361 0.4660563 0.01559979
-0.07224424 0.4820061 -0.03933749
-0.08231032 0.5622576 -0.04327409
-0.08990476 0.4898462 -0.04617226
-0.1137353 0.4718609 -0.05326758
-0.1768447 0.5081766 0.03072374
-0.1884655 0.4599818 0.02460033
-0.186174 0.4880398 -0.0003072519
-0.08477484 0.4536567 0.002945596
-0.1422022 0.5530127 0.05059727
-0.1572266 0.5505657 0.03983364
-0.1526362 0.5605162 0.001917828
-0.1457996 0.468562 -0.05680834
-0.1016127 0.4603336 0.04706304
-0.1475526 0.5715003 0.004320774
-0.1582387 0.5414262 0.05562062
-0.1285834 0.5103681 -0.05748584
-0.08351604 0.4976487 0.05181067
-0.07827841 0.4710746 0.02337275
-0.1029616 0.5713195 -0.03326947
-0.1567355 0.4536291 0.03767903
-0.1907564 0.4781572 -0.02576142
-0.1735919 0.5151981 0.04074712
-0.1308156 0.547968 0.05318123
-0.1826541 0.4956788 -0.04050487
-0.08047824 0.4627917 0.0174664
-0.1672139 0.5219774 0.05827137
-0.1231787 0.5280118 0.0580745
-0.1102723 0.5350288 -0.05656987
-0.07763439 0.465378 -0.001493994
-0.07787689 0.5155036 -0.05700691
-0.1196966 0.5754927 -0.02642332
-0.07324772 0.5221075 0.05809957
-0.1472297 0.503025 -0.05673262
-0.1285175 0.5584648 -0.04624634
-0.07341707 0.5121378 0.05683919
-0.1806259 0.5000011 0.03581274
-0.1130141 0.558989 0.04661227
-0.0968201 0.4995512 -0.05203449
-0.1796909 0.5020421 0.01015224
-0.1597731 0.545126 -0.03981945
-0.1734282 0.4870421 -0.04585402
-0.1580314 0.5362985 -0.05629554
-0.1344298 0.4679328 -0.05768581
-0.1727386 0.5170645 0.01280856
-0.1386709 0.5778264 0.02225856
-0.1746408 0.5088501 0.0561997
-0.1440645 0.5784239 -0.01978586
-0.1584972 0.5014838 -0.05457455
-0.07462873 0.5814786 -0.006848229
-0.07553722 0.5339929 0.0572923
-0.134145 0.5581405 0.04722788
-0.15414 0.5572765 -0.01102051
-0.1092353 0.4922096 0.05228851
-0.08307587 0.5092444 0.05630852
-0.154115 0.481701 -0.0546705
-0.08674467 0.5464848 0.05378849
-0.1081187 0.5003452 -0.05335699
-0.09631605 0.5776165 0.02258997
-0.10627 0.5800164 0.01565426
-0.1725532 0.50646 -0.054831
-0.0932796 0.4739622 0.03923248
-0.1352997 0.5732654 -0.03045205
-0.1013879 0.5460182 -0.05323429
-0.07454131 0.4699008 -0.01974572
-0.08499058 0.5511483 -0.05083514
-0.171219 0.5203589 -0.000467933
-0.1513012 0.5634246 -0.02759847
-0.1678337 0.5277123 -0.04750554
-0.118365 0.4992631 0.05592217
-0.1620393 0.5128015 -0.05654477
-0.1805049 0.4675991 0.03704538
-0.1919235 0.4614347 -0.01446127
-0.08617125 0.4657639 -0.02945349
-0.1483484 0.5136776 -0.05733515
-0.1475098 0.5702771 0.03544997
-0.09952074 0.5006983 0.05324605
-0.09839585 0.5760784 -0.02543851
-0.1814307 0.4643452 -0.03533721
-0.1739941 0.471431 -0.04318893
-0.1212374 0.578371 0.02091565
-0.1195314 0.4536926 -0.04203611
-0.1653885 0.5329367 0.0279482
-0.1155631 0.5548843 -0.04878227
-0.1291898 0.5821059 -0.001465905
-0.1240424 0.5104471 0.05776315
-0.09017783 0.5672541 -0.03844409
-0.08285782 0.4578302 -0.02307042
-0.1090535 0.5819182 -0.00391965
-0.09140609 0.5819589 0.004974411
-0.1705176 0.5218475 0.03384009
-0.1781857 0.5052662 0.04640052
-0.1323115 0.4642446 0.05817867
-0.1707794 0.4607866 0.04657336
-0.07204212 0.4680279 0.01410475
-0.08360864 0.5800458 -0.01462596
-0.1523371 0.4600926 -0.05529362
-0.1632828 0.5374975 0.01501357
-0.1659133 0.5317864 0.04824056
-0.1233086 0.4691148 0.05689986
-0.08327817 0.5750728 -0.02725085
-0.1685193 0.5261785 0.01803605
-0.1722093 0.4925797 0.04937294
-0.125168 0.5372677 -0.05596605
-0.1106866 0.4769217 0.05240902
-0.1494309 0.5674338 0.01339247
-0.1309478 0.5800921 0.01552015
-0.1833037 0.12907 0.006800772
-0.1745302 0.04426521 -0.01845242
-0.1647182 0.08894304 -0.04074039
-0.1709195 0.1023112 0.001193326
-0.1556599 0.06929533 0.04980311
-0.1447345 0.04572473 -0.0005287842
-0.2016718 0.1313663 -0.0244806
-0.1607559 0.08032507 0.02841271
-0.149054 0.0550504 0.01072634
-0.1908228 0.1453455 -0.0257246
-0.1996276 0.1558687 -0.01748157
-0.2012593 0.1406816 -0.03585095
-0.1578052 0.07399344 -0.02801624
-0.1813926 0.0521317 0.03141335
-0.1684266 0.09693132 -0.008087369
-0.1817864 0.05888533 -0.04022228
-0.1881652 0.1235967 -0.05256927
-0.1950832 0.08128161 0.02528696
-0.1922222 0.05956572 0.005260368
-0.1699353 0.05365916 -0.0359518
-0.1640521 0.08749482 -0.02984102
-0.1996406 0.1458589 0.03282393
-0.1483623 0.05358795 -0.02985306
-0.1524383 0.06234729 0.03192222
-0.1699633 0.1002858 -0.05026595
-0.2021391 0.1349051 -0.01070213
-0.1655812 0.09074289 0.04118399
-0.1932239 0.06716318 0.01943602
-0.1943221 0.07551943 0.0008486254
-0.1439219 0.04241448 -0.0176736
-0.180571 0.1231399 0.03777536
-0.1933576 0.1219479 0.0527192
-0.1950094 0.1543634 0.0114114
-0.1436963 0.040732 0.01085634
-0.1991209 0.1119385 0.04023549
-0.186588 0.1361797 -0.00818926
-0.1964326 0.1103055 -0.05242175
-0.1975908 0.1003629 -0.01832993
-0.1566218 0.04123433 0.00265833
-0.1828647 0.1281099 0.02116886
-0.1945449 0.07868811 0.04064732
-0.1908045 0.1452972 -0.01483324
-0.1678444 0.09568566 -0.02380787
-0.1760812 0.1134458 0.02685414
-0.1942212 0.08411305 -0.04724015
-0.1710139 0.09093228 0.05738962
-0.1669334 0.09369407 0.004935635
-0.1874947 0.1381602 -0.0345639
-0.1769742 0.1154145 -0.02210636
-0.1955069 0.1554524 -0.006103933
-0.2042254 0.1507373 0.007361637
-0.1618846 0.04652258 -0.02430956
-0.1779057 0.1174162 -0.007758428
-0.1954368 0.08400375 -0.02086032
-0.1998077 0.1172138 -0.03263641
-0.1807947 0.1209807 0.05527678
-0.1556795 0.06937638 0.001098082
-0.1756321 0.1124867 0.01227656
-0.1598426 0.07833548 0.04840062
-0.1724332 0.1055671 0.02046
-0.1781009 0.07062149 0.05047603
-0.1849883 0.06100416 0.04035784
-0.1894162 0.06714176 -0.04176753
-0.1612807 0.08145089 0.03893252
-0.2013505 0.1289373 -0.03874946
-0.1791755 0.04520449 0.01816146
-0.2020103 0.1338987 0.02458931
-0.1494627 0.0458589 0.02283832
-0.1845739 0.1317858 0.04348974
-0.1981488 0.1046085 -0.0275579
-0.1863656 0.07823198 -0.05253123
-0.1580697 0.0598105 0.04260161
-0.1606815 0.08017275 0.01799361
-0.1889178 0.08979543 -0.05564132
-0.1777839 0.1102163 -0.05842048
-0.1997191 0.1165257 -0.01383754
-0.1976533 0.1008229 0.0004004584
-0.1841117 0.04570298 -0.008874836
-0.1624407 0.04228879 0.01131945
-0.1500645 0.05724975 -0.008681614
-0.2009265 0.1483663 -0.02814628
-0.1602489 0.07928455 -0.04064902
-0.1959312 0.137543 0.04310117
-0.1978267 0.1021296 0.01365768
-0.1982739 0.1234498 -0.04866078
-0.1821839 0.1266627 -0.009079929
-0.1635103 0.08634364 -0.05432416
-0.153175 0.06394783 0.02147838
-0.151215 0.05976253 -0.04186931
-0.2014893 0.1299597 0.0008607137
-0.166423 0.04709805 0.02550983
-0.1616208 0.0700954 -0.05017623
-0.1989761 0.1108735 -0.003100061
-0.1602677 0.07930417 -0.01426907
-0.198081 0.1040494 0.02817241
-0.1965298 0.09226049 0.03642914
-0.1733049 0.06710358 -0.0482901
-0.192718 0.1376759 -0.04332753
-0.1753206 0.07730485 -0.05370098
-0.2012967 0.1284875 0.01283534
-0.1862857 0.04758612 0.008932815
-0.185885 0.1346721 -0.0228636
-0.1986563 0.1084748 -0.04163836
-0.1893261 0.05078015 -0.001249146
-0.1745166 0.1100553 0.03829324
-0.1702105 0.06157325 0.04413322
-0.1563956 0.07089651 0.03554867
-0.1927962 0.0691018 0.03598581
-0.1906647 0.05636571 0.02028515
-0.1969228 0.09530298 -0.03537037
-0.1910395 0.1039029 0.05658238
-0.1961718 0.08957677 -0.00844311
-0.1773489 0.1162337 -0.03401521
-0.1931641 0.1503657 0.02370383
-0.1553542 0.06868502 -0.0135527
-0.2033782 0.1507811 0.01835324
-0.1945566 0.07732985 -0.03513961
-0.1720034 0.1046753 -0.02585809
-0.19675 0.09430999 -0.04560928
-0.1594468 0.04318309 -0.01509321
-0.1921619 0.1482179 0.001084895
-0.2026679 0.138907 0.00709163
-0.1683655 0.09676603 0.03355656
-0.1586555 0.1696512 0.009783033
-0.1195714 0.05771555 -0.04051705
-0.1240923 0.04306013 0.01396858
-0.0924737 0.04131893 0.000683684
-0.1058473 0.1611257 -0.04958478
-0.108512 0.04881386 -0.02865991
-0.1268987 0.1676048 0.05732379
-0.1259176 0.0791081 0.05428403
-0.1617304 0.1696783 -0.02428738
-0.1555815 0.1696934 -0.04323985
-0.1091002 0.07491657 0.05263212
-0.09993862 0.1135255 0.05614896
-0.1575702 0.1531154 -0.05364244
-0.1459016 0.07287801 0.05161849
-0.1124786 0.164357 0.05312508
-0.0805944 0.1509622 0.02578044
-0.1079033 0.1696253 0.04237071
-0.1539647 0.08551137 0.05632363
-0.1386384 0.06106569 -0.04359708
-0.1569358 0.1399373 0.05397151
-0.09684408 0.06573229 0.04719877
-0.08013646 0.1655592 -0.01575269
-0.1263539 0.1372736 -0.05709647
-0.1148659 0.0890056 -0.05702487
-0.1438868 0.1277009 0.05745125
-0.1240734 0.07501718 -0.05267822
-0.188679 0.1643103 0.02383891
-0.08379339 0.1645195 0.02559746
-0.08985961 0.1438111 0.03798112
-0.1290278 0.1135918 -0.05779596
-0.08387031 0.04409964 -0.01804685
-0.08510064 0.1329915 0.04692702
-0.09050326 0.1397256 -0.04140663
-0.1136452 0.1085434 -0.0572236
-0.1495606 0.1082761 -0.05766615
-0.1539179 0.08280553 -0.0556077
-0.1188182 0.1363616 0.0553988
-0.1097979 0.06280611 -0.04517345
-0.1884502 0.1401778 0.02471475
-0.1120866 0.1403008 -0.05276285
-0.1752126 0.1692543 0.04247665
-0.157109 0.1102407 0.0570987
-0.1275099 0.05302551 -0.03507818
-0.1852778 0.1696668 -0.009822586
-0.07820722 0.1638193 -0.005930106
-0.1069276 0.04481363 0.01995256
-0.09654662 0.1044627 -0.05774111
-0.09282978 0.04751443 0.02633175
-0.1165151 0.04136175 -0.001600739
-0.1188679 0.04780578 0.02673239
-0.08189939 0.1185326 0.05462638
-0.1774526 0.1258821 -0.05125732
-0.08613074 0.07961538 0.05445565
-0.09761834 0.05318123 0.03510102
-0.1469274 0.1563745 -0.0568294
-0.07418375 0.08389343 -0.05582978
-0.1697503 0.1327526 0.04895908
-0.152165 0.06179905 -0.02123374
-0.1746017 0.1464152 0.04287776
-0.1619632 0.1098109 -0.05697324
-0.07672617 0.04270633 0.0129624
-0.1334443 0.10487 0.05794576
-0.09119355 0.1243786 0.05208912
-0.0960373 0.07573035 0.05299835
-0.1607367 0.1259656 0.0535807
-0.09287514 0.05238344 -0.03420631
-0.142177 0.1607155 0.05768853
-0.08939182 0.1564467 0.03455274
-0.1737472 0.1084542 -0.03921258
-0.08523394 0.165036 -0.02820758
-0.09600293 0.1037472 0.05780867
-0.07498144 0.0476388 -0.02637353
-0.1488904 0.09506956 0.0577941
-0.1690383 0.1696387 0.02543499
-0.08075172 0.07377837 -0.05204925
-0.1089618 0.1185225 -0.05499299
-0.1292488 0.1485023 -0.05755588
-0.1284554 0.04595885 -0.02293962
-0.1088614 0.1420632 0.05122139
-0.1259496 0.1159119 0.05750011
-0.1900531 0.1664042 -0.02050663
-0.1212164 0.09897745 -0.05799335
-0.1391262 0.1173904 0.05792503
-0.105114 0.04134139 -0.0004531155
-0.08702555 0.06366803 0.04572679
-0.08665559 0.04401349 0.0176285
-0.1313391 0.0517223 0.03318365
-0.08249932 0.05412751 0.03632582
-0.1295775 0.1262222 -0.05756704
-0.09582287 0.1310095 -0.04823877
-0.1167118 0.09277387 0.0575798
-0.07830855 0.1423002 -0.03860394
-0.08590114 0.1061184 -0.057545
-0.09948294 0.1500472 -0.04486516
-0.1816066 0.1254285 -0.02578261
-0.1027492 0.04218666 -0.0105497
-0.1826008 0.1483847 0.03464342
-0.1060522 0.09080275 0.05736987
-0.07659577 0.07119682 0.05066853
-0.185292 0.2143281 0.007746464
-0.124998 0.371122 -0.04870056
-0.143796 0.4438078 -0.05120301
-0.1644289 0.3371406 0.04136212
-0.1352485 0.2865766 -0.04989496
-0.110906 0.3850693 -0.04315198
-0.1585103 0.3157501 -0.04443333
-0.1234772 0.2775108 0.04865305
-0.1197778 0.1825466 0.04747575
-0.1250902 0.1893352 -0.04886048
-0.09961519 0.448351 0.04365994
-0.1749848 0.3515403 -0.03108827
-0.1743674 0.2039861 -0.03189711
-0.1778707 0.363634 -0.02698229
-0.1729153 0.3386606 0.0338594
-0.1370439 0.2229109 -0.05001361
-0.1083674 0.2418681 -0.04174259
-0.1691388 0.187398 0.03754087
-0.170451 0.280297 0.0363091
-0.1538938 0.3438156 0.04691618
-0.1332273 0.2281386 0.05009646
-0.08609571 0.3563548 -0.005396271
-0.08875589 0.4145419 0.01714557
-0.1605057 0.3881625 0.0437824
-0.09606954 0.3693752 0.03066005
-0.1628841 0.3543768 -0.04190652
-0.1026327 0.375312 -0.03730739
-0.1835351 0.2786698 -0.01514114
-0.09875908 0.2731707 -0.03350477
-0.09925486 0.354027 -0.03394259
-0.08025691 0.4502289 0.01350243
-0.1330514 0.2452909 -0.04984464
-0.1429122 0.3588675 0.04974901
-0.1595367 0.3984661 0.0443721
-0.1254382 0.333748 0.04912292
-0.1319072 0.4115593 0.05012624
-0.1385956 0.3782568 0.0501852
-0.1785429 0.2918119 0.02625949
-0.1348433 0.3488135 0.05030381
-0.180474 0.3527296 -0.02242455
-0.172364 0.3058679 -0.03405916
-0.08667056 0.3105825 -0.009219593
-0.09845428 0.2178914 0.03333167
-0.1027177 0.2449683 0.03760644
-0.08894707 0.3228939 0.01759312
-0.1854476 0.3073681 -0.006643476
-0.1501874 0.3972456 0.04817004
-0.1823497 0.4139695 0.01874997
-0.1060999 0.397429 0.04052716
-0.1408609 0.1930015 0.04995194
-0.1853906 0.3444297 -0.007178349
-0.156129 0.246614 0.04585446
-0.1330743 0.3518696 -0.04976066
-0.1415655 0.4274393 0.05002579
-0.1381 0.2122918 -0.04993642
-0.1847778 0.2648846 0.01097803
-0.09271152 0.3269305 -0.02516105
-0.1858548 0.375118 0.001884864
-0.08987924 0.3698158 0.0201684
-0.1300315 0.4098498 -0.04950017
-0.1305913 0.4408588 -0.04959502
-0.1832781 0.2858638 0.01628344
-0.1060364 0.2712943 0.04038423
-0.1672341 0.1776281 -0.04391153
-0.1589233 0.2214411 0.04459931
-0.1624266 0.2216705 -0.04231877
-0.08763231 0.2997706 0.01372183
-0.1081841 0.2310852 0.04179171
-0.1508618 0.4185902 0.0479864
-0.08826195 0.1971224 -0.01549476
-0.1770197 0.2412509 -0.02831467
-0.09375497 0.2476877 -0.02701466
-0.1236994 0.3361081 -0.04839483
-0.1142997 0.3851165 0.0453904
-0.1559297 0.3983151 -0.04566167
-0.1288034 0.3142507 -0.04937365
-0.1855971 0.2145699 -0.005237415
-0.1655697 0.3258557 -0.04012923
-0.1465317 0.3697213 0.04916051
-0.1413493 0.404971 0.05004354
-0.08851504 0.2776669 0.01638088
-0.1104387 0.3666003 0.04341073
-0.1632459 0.2394452 -0.04175556
-0.1144805 0.4104659 -0.04500918
-0.18394 0.2051085 0.01388504
-0.1146034 0.1840077 -0.04524359
-0.1810652 0.3927678 0.02175451
-0.08622687 0.3192836 0.006737096
-0.08840035 0.2421884 -0.01594697
-0.1168829 0.1943095 0.04643776
-0.1113033 0.2811009 0.04380498
-0.1503056 0.2288448 0.04800085
-0.1065617 0.2658697 -0.04048278
-0.1770387 0.1817573 0.02888146
-0.183754 0.2931007 -0.01453365
-0.09351632 0.3307292 0.02692379
-0.08856493 0.3840584 -0.01641443
-0.1127971 0.3047937 -0.04435077
-0.1040411 0.4239463 0.03890062
-0.1816227 0.3101836 0.02037737
-0.1726109 0.3319461 -0.0337619
-0.1794792 0.4456382 -0.03136512
-0.1817505 0.4322109 -0.0198775
-0.1538389 0.2643125 0.04687706
-0.08675908 0.1818414 0.0105585
-0.09150124 0.428358 0.02342141
-0.1512498 0.3677469 -0.04740642
-0.08601904 0.2182592 -0.005001103
-0.09824429 0.2141909 -0.03303026
-0.1857268 0.4124025 0.005039682
-0.1676331 0.4495811 -0.04706087
-0.1064385 0.2897078 -0.04036698
-0.1484062 0.3870087 0.04869183
-0.1897646 0.4495997 -0.01821947
-0.1532005 0.34972 -0.0467326
-0.08867971 0.223902 0.01678644
-0.1679336 0.1884198 -0.03833136
-0.1026203 0.1740075 -0.0462006
-0.08945613 0.3481896 0.01899924
-0.1206887 0.2976008 -0.04752977
-0.08586805 0.2445154 -0.002486711
-0.08456881 0.4430106 0.00264157
-0.1566847 0.3202112 0.04566832
-0.1772372 0.2366111 0.02835186
-0.1854211 0.2749142 0.006944151
-0.08837582 0.242599 0.01597395
-0.09420927 0.3610696 -0.02770342
-0.08908735 0.1975652 0.01787528
-0.08663502 0.2940504 -0.008998629
-0.1004676 0.3386855 0.03568207
-0.1289555 0.3839007 -0.0493433
-0.08678256 0.4118604 -0.009876697
-0.1538246 0.1903683 -0.04663928
-0.1005148 0.4088553 -0.03517519
-0.166285 0.3656973 -0.03961806
-0.09667265 0.4092107 0.03148909
-0.16875 0.3136145 0.03794696
-0.09097694 0.2655053 0.02227892
-0.08598459 0.1965436 0.004240946
-0.08698811 0.3339615 0.01095158
-0.1162138 0.2113066 0.04621184
-0.08627688 0.4300517 -0.006531088
-0.1281379 0.3622597 0.04973091
-0.1838235 0.3166745 -0.01432557
-0.1440962 0.4416264 0.04984182
-0.09296864 0.3959469 -0.02554731
-0.139454 0.3232177 -0.0497289
-0.08634534 0.4104462 0.007982625
-0.1267913 0.3103752 0.04939769
-0.09776728 0.2838845 -0.03241321
-0.09651066 0.3195164 0.03123632
-0.1842219 0.1923559 -0.01281577
-0.1569194 0.2901312 0.04554102
-0.1694195 0.2308974 0.03731466
-0.1834889 0.333417 -0.01522317
-0.08937342 0.2774393 -0.0184131
-0.09723652 0.3911097 0.03210605
-0.08614652 0.2646471 -0.005803969
-0.09703622 0.1997182 0.03172942
-0.1678053 0.3904935 -0.03828213
-0.1423996 0.4109043 -0.04939973
-0.1068626 0.2551081 0.04092506
-0.0947625 0.4308867 -0.02837062
-0.105035 0.4381945 -0.03914552
-0.177101 0.3742073 -0.02809096
-0.1206183 0.4348213 0.04794699
-0.1820017 0.2690678 -0.01932359
-0.1235987 0.222493 -0.04845533
-0.1666262 0.3769282 -0.03931914
-0.1786679 0.1795039 -0.02961628
-0.1542516 0.2669608 -0.04642768
-0.1859312 0.2254475 -0.001290585
-0.09402307 0.3072208 0.02764053
-0.1660864 0.364866 0.04008138
-0.1136187 0.3416219 -0.04468447
-0.1434041 0.2681358 -0.04942102
-0.1568327 0.3277569 -0.04526503
-0.1016662 0.1945164 -0.0365121
-0.1147122 0.424413 -0.04510012
-0.08968175 0.3419999 -0.01908697
-0.1190845 0.4100281 0.04738619
-0.0857808 0.2895202 0.001040211
-0.1728907 0.3540791 0.03389659
-0.1696304 0.2743283 -0.03678637
-0.1074173 0.4354809 0.04144048
-0.08607528 0.3689707 -0.005251699
-0.188633 0.1785056 0.005939257
-0.1722751 0.266176 0.03445018
-0.1854684 0.324328 0.006671628
-0.1840311 0.2550224 0.01360345
-0.1850812 0.2670432 -0.009024722
-0.1201003 0.3765813 0.04771787
-0.1618447 0.4217589 -0.04254955
-0.1832564 0.4324163 0.01647662
-0.1698392 0.2112061 0.03687386
-0.09941743 0.2838355 0.03446259
-0.07981585 0.1749348 -0.007382435
-0.1717691 0.4043867 0.03507268
-0.1692985 0.427734 -0.03695307
-0.09524682 0.224727 -0.02916746
-0.1858108 0.3912672 0.003657728
-0.09196404 0.2984264 -0.02390108
-0.1730015 0.1979811 0.03366007
-0.1238124 0.3957521 0.04881985
-0.1821418 0.1844487 -0.01900947
-0.1739645 0.2960234 -0.03227496
-0.18136 0.370111 0.02104309
-0.1858237 0.3612226 0.00311769
-0.09565058 0.2554205 0.0299613
-0.1419639 0.1812808 -0.05004721
-0.1383847 0.178638 0.05291935
-0.1771637 0.4325199 0.02860377
-0.177595 0.3842369 0.02795948
-0.1740704 0.3727417 0.03259749
-0.1139396 0.3678657 -0.04480489
-0.1187964 0.4342009 -0.04685806
-0.1392076 0.2566656 0.05006522
-0.09509981 0.337164 -0.02888589
-0.1032605 0.374804 0.03818218
-0.1355556 0.3372222 0.05026763
-0.1314503 0.186969 0.04990722
-0.1707292 0.5649304 -0.04088652
-0.1845987 0.4914572 -0.01645456
-0.1910909 0.5677792 -0.01245849
-0.1884339 0.4947368 -0.04960883
-0.1937159 0.5524046 -0.003123377
-0.1999089 0.5053496 0.01517102
-0.1774251 0.5328131 -0.05698839
-0.1951522 0.5414975 -0.006128029
-0.1946244 0.5455307 -0.03672681
-0.1996837 0.5070747 -0.002832745
-0.1929759 0.5580122 0.01401955
-0.1894917 0.5614052 0.0357075
-0.182269 0.5724546 0.02874547
-0.2019832 0.4896213 -0.01939078
-0.1584376 0.5796418 0.01719921
-0.1963041 0.5327603 -0.02194688
-0.1653149 0.5788529 -0.01892083
-0.2013265 0.4945729 0.02637026
-0.1822083 0.579089 0.007221397
-0.1694634 0.5798055 0.01664287
-0.1901143 0.5711313 0.00170923
-0.2020992 0.4887146 0.01255672
-0.203893 0.4742253 -0.01720133
-0.1924072 0.5553179 -0.03561117
-0.1959177 0.529815 -0.04855621
-0.1985907 0.5153413 0.04173321
-0.1634315 0.5738573 -0.02952874
-0.1892864 0.5383474 -0.05348305
-0.1977899 0.5214852 -0.03538318
-0.1879696 0.5716408 0.01912928
-0.2036301 0.4686208 -0.0006518204
-0.1775765 0.5066198 -0.0003434205
-0.183712 0.4933254 0.04394487
-0.1956414 0.5377713 0.006771446
-0.1787757 0.5040381 -0.01262633
-0.197464 0.5239153 0.02150509
-0.197901 0.5206103 0.003335462
-0.1939985 0.5502765 -0.02588371
-0.2016041 0.4925137 -0.03527828
-0.2037464 0.4761978 0.01937664
-0.1985676 0.4782422 0.03493646
-0.1532682 0.5765229 0.02522258
-0.1664442 0.530647 0.0380114
-0.1487715 0.5688775 -0.009990695
-0.1857157 0.4890046 0.03202461
-0.1792758 0.5029301 0.02153752
-0.1904458 0.5659201 -0.02387158
-0.1432277 0.5808469 0.004049296
-0.2025971 0.4849444 -0.001852077
-0.1601938 0.5530338 0.05201805
-0.2042139 0.4722396 0.009651432
-0.1556125 0.5555495 -0.05009799
-0.1831181 0.5467975 0.05326574
-0.1951935 0.5107455 0.0539615
-0.1992747 0.5102134 -0.0435681
-0.1676979 0.5816749 -0.006894862
-0.1975308 0.5234368 -0.01467798
-0.1727172 0.5171024 0.02321157
-0.1720466 0.5738841 0.03014872
-0.1931884 0.5564196 -0.01297754
-0.2028282 0.4831555 -0.02963261
-0.18913 0.4816631 -0.01463783
-0.1804916 0.5007547 0.05503576
-0.1993214 0.5000116 -0.04675941
-0.1623738 0.5607401 -0.04463687
-0.1497992 0.5666298 0.02365369
-0.1987408 0.5142505 -0.02066978
-0.0009965599 0.9343208 -0.004192714
0.01135732 0.9451816 0.02488965
-0.005796418 0.9452283 -0.002677552
0.01125233 0.9141932 0.03931756
0.04104997 0.8940616 0.002060691
0.01217707 0.9043888 -0.01444792
0.02961755 0.9515047 0.01062232
-0.0001804829 0.9324893 -0.0333995
0.03996526 0.937202 0.01750075
0.03948642 0.9210039 0.03043181
0.03963001 0.9397095 -0.0134317
0.01446055 0.8992107 -0.02896944
0.01881278 0.8892877 0.01053532
0.01305231 0.949427 -0.01742311
-0.00597553 0.9532018 -0.01194059
0.009443521 0.9356242 -0.03161741
0.02935503 0.9454393 -0.02196983
-0.00180079 0.9483472 -0.02143566
0.01958115 0.8980415 0.03465703
0.03988607 0.8877374 0.01687665
0.03114988 0.9107001 0.03743684
0.03498158 0.8835716 -0.01625863
0.0178175 0.9272308 -0.03529884
-0.008991465 0.9524763 0.01435426
0.01060222 0.9079766 -0.02521652
0.03189157 0.8803326 0.01016738
0.02192876 0.9346765 0.03348206
0.03573488 0.9184126 -0.03414155
0.01747604 0.8923489 -0.01838975
0.003265426 0.9246132 0.02245124
0.008672997 0.9123226 0.02324978
0.00133422 0.9290142 0.007525209
0.03377201 0.8916109 0.0281848
0.02800108 0.8792828 -0.009780631
0.04088877 0.9288886 -0.0201116
0.02480891 0.9121537 -0.03657899
0.01891211 0.9527382 -0.009266588
0.004539996 0.9539545 -0.002352494
0.02507424 0.9480155 0.02099957
0.01441994 0.9539841 0.003311133
0.01496442 0.9101276 -0.03741063
0.007625341 0.9147249 -0.003514756
0.0116825 0.9509693 0.01557665
0.04100995 0.9364011 0.006705626
-0.001998633 0.9365739 0.02629748
0.03588085 0.9008377 0.03285007
0.03808881 0.8811356 -0.003373236
0.0342754 0.9481078 -0.01138403
0.02546307 0.8884046 -0.02407458
0.02038638 0.8857193 0.0007848275
-0.003260002 0.9394482 0.01679948
0.01695378 0.8935051 0.02024267
0.03758101 0.9453264 0.01009771
0.01587953 0.8959602 0.003149242
0.004975826 0.9207336 0.01289901
-0.008296475 0.9552284 0.00335796
-0.0002943426 0.953131 0.009018375
0.02409309 0.8890983 0.02776089
0.02285473 0.882331 0.01862305
0.03363977 0.9367449 -0.02805517
0.003297761 0.9245632 -0.006987567
0.01151612 0.9372143 0.03195364
0.007578045 0.6811744 0.02939266
0.02019092 0.7281259 0.009378946
0.003376618 0.7444366 -0.03129277
0.007036179 0.71952 0.02980616
0.01329303 0.7673874 -0.02246897
-0.01565097 0.7564234 -0.03682199
0.02005279 0.8135601 -0.008535308
-0.04858863 0.6415927 0.01919469
0.01337247 0.8264636 0.02368413
0.00685598 0.6934264 0.02991275
-0.04169238 0.6736676 -0.02684204
-0.05190594 0.6083977 -0.010584
0.002482101 0.7456378 0.03304574
-0.03643496 0.83744 -0.03077487
-0.0100055 0.7151937 -0.03632001
-0.04788263 0.6654577 -0.01919295
0.01951151 0.6273894 0.0116561
-0.05326533 0.6605682 0.005519236
-0.03170982 0.8293247 0.03458318
-0.01906041 0.8710904 -0.001165223
0.01262359 0.6864145 -0.02348057
0.02023008 0.6698055 -0.007866366
-0.0346953 0.8710778 0.01473124
-0.03656704 0.6088285 -0.03086356
-0.01606958 0.5981554 0.005219508
-0.05341594 0.7196877 0.003022991
-0.02121043 0.6184275 -0.03670449
0.02059445 0.6098903 -0.006304119
-0.003763855 0.6375279 -0.03479117
0.007935852 0.6681896 0.02912943
0.005394489 0.6100163 0.03087931
-0.01379742 0.8134578 0.03783933
-0.0148425 0.6768734 -0.03690653
-0.0329745 0.5981368 0.02851931
0.007306159 0.7818973 0.02966502
0.01286446 0.7295008 -0.02310549
-0.05268105 0.727774 -0.007270925
-0.0256145 0.5981708 -0.01420918
0.01240812 0.8601128 0.02472721
-0.04852295 0.643347 -0.01819561
-0.05003764 0.7449881 -0.01534292
0.01554862 0.8196374 -0.01923603
0.02057672 0.6555309 -0.006346115
-0.01645023 0.7911832 0.03789118
-0.02268592 0.8710651 0.0305146
-0.05149238 0.6868386 -0.01159905
-0.009635702 0.8221878 -0.03617129
0.01767169 0.6304215 -0.01536538
-0.002783611 0.6349286 0.03532681
-0.002729759 0.7284881 0.03537732
0.02077135 0.8575042 -0.005325299
-0.02571861 0.8087456 -0.03553267
-0.0516858 0.7651551 0.01246928
-0.002976716 0.8300498 0.03556816
-0.04772045 0.8068951 -0.0193374
-0.04029853 0.7608093 -0.02810516
-0.02086392 0.6382601 -0.03676712
-0.04421036 0.811204 0.0253874
-0.003730312 0.7784109 0.03586259
-0.04239272 0.7403527 -0.02605087
0.02028447 0.6986808 -0.007603034
-0.01163144 0.8677092 0.03782572
0.0171351 0.7161833 0.01767442
-0.05337264 0.8159736 0.004750792
-0.01293648 0.6183985 0.03766145
-0.001407787 0.8389719 -0.03372647
0.01130609 0.7039523 0.02576427
-0.05285147 0.6987195 0.007378282
-0.003627613 0.7599022 0.03580215
-0.04895826 0.7076036 0.01854895
-0.03090966 0.6176195 0.03472172
0.009459808 0.8403438 0.0278186
-0.02395754 0.7475024 -0.03597999
0.01932462 0.7327801 -0.01157174
-0.03756746 0.6273358 0.03103426
-0.05354977 0.7397993 -0.002063661
-0.04259942 0.6809678 0.0268123
0.02121602 0.6875215 0.001756859
-0.0191922 0.6840631 0.03780925
-0.0282907 0.7325366 -0.03494161
0.006796688 0.7751492 -0.0291106
0.01144429 0.8593527 -0.02465731
0.01741527 0.6444583 -0.01593011
-0.04991098 0.8481468 0.01652121
0.00435853 0.6610043 -0.03073971
0.01101899 0.7413146 0.02609659
-0.04092124 0.8129201 -0.02754383
0.0211668 0.7895911 -3.912218E-05
-0.03607761 0.6880106 -0.03114642
0.02072717 0.77455 0.006294324
-0.04943012 0.7292819 -0.01668929
0.005230233 0.8550653 0.0311905
0.008697733 0.785917 -0.02732196
-0.04827088 0.6886054 0.01968169
0.009268552 0.6002471 0.02782899
-0.05315024 0.6029809 0.005981924
-0.05090007 0.665427 0.01415444
-0.04060277 0.8588662 0.02884853
0.01682068 0.6105763 -0.0172924
0.02049626 0.7971923 -0.006588806
-0.05333406 0.7496796 0.005286485
-0.04078222 0.7148459 -0.02776842
0.004771829 0.8140255 -0.03035712
-0.008632407 0.8711013 -0.01476267
0.001851961 0.6777236 -0.03230779
0.01775028 0.6569332 0.01626837
-0.03345571 0.650103 0.03364648
-0.02204516 0.7984264 -0.03637227
-0.02836984 0.6734014 -0.03495346
-0.04472063 0.7971034 -0.02355237
-0.04900146 0.7317756 0.01847119
-0.01021023 0.7895464 -0.03629598
0.02108386 0.6352193 -0.00332432
0.01113333 0.7131618 -0.02506878
0.01269747 0.7589822 0.02434175
-0.0404392 0.8206944 0.02897335
-0.0178792 0.7129468 0.03786637
0.005124763 0.6420212 0.03109543
-0.004974127 0.7899965 0.03628404
-0.04616988 0.8317639 -0.02177531
0.02010477 0.8470267 0.009975098
-0.04219704 0.8690549 0.02734388
0.01831737 0.7732934 -0.01380156
0.01181792 0.6995752 -0.02443001
-0.0309563 0.7500267 0.03480925
-0.05335371 0.802935 0.005242044
0.01440184 0.6240969 0.02193345
-0.03739558 0.7590727 0.03124759
-0.006130189 0.8555793 0.03659789
-0.04650036 0.707091 -0.02135077
-0.03736509 0.7022723 0.0312216
0.008085147 0.832817 -0.02786591
0.02106158 0.7129749 -0.004112009
0.001841173 0.7601464 -0.03224897
-0.04745398 0.821475 0.02094329
-0.01009369 0.6894637 -0.03635565
-0.04304823 0.8484668 -0.02527397
-0.05013162 0.7154342 -0.01512162
-0.04328173 0.7755598 -0.02508593
-0.0144453 0.6019269 -0.03697662
-0.04854077 0.7217809 0.01932626
-0.03950139 0.7223531 0.02978495
-0.04564394 0.7753574 0.02346748
-0.03719093 0.6298101 -0.03040589
-0.02338593 0.7384953 0.03713214
-0.05343222 0.8575886 0.002512303
-0.03039575 0.7734858 -0.03397168
-0.0521438 0.6492525 0.01046574
0.009004891 0.637712 -0.02714851
0.01824205 0.8645725 -0.01389806
-0.02784924 0.7778432 0.03602393
-0.02056459 0.6251118 0.03752656
-0.05086227 0.7819597 0.01433213
0.01536506 0.6202987 -0.01965445
-0.05244966 0.6773854 0.009136666
-0.04569814 0.689849 -0.02260762
-0.0535354 0.6433189 -0.002364957
-0.05254495 0.6629429 -0.008114749
0.01565985 0.8345066 -0.0190668
-0.05287687 0.8469064 -0.006036208
-0.007426158 0.7639371 -0.03583809
-0.004152119 0.8427533 0.03610166
-0.05266182 0.8112216 -0.007316436
-0.01076491 0.7455947 -0.03642625
0.01770543 0.7462023 0.01645629
-0.05271666 0.7306592 0.007999342
-0.01278497 0.7524633 0.03776423
0.01946728 0.6859963 -0.01122398
-0.03210776 0.8689606 -0.03313334
0.01817757 0.746262 -0.01413705
0.01317091 0.6586224 -0.02272832
-0.03541553 0.7060221 -0.03160004
0.008300781 0.6134816 -0.02783593
0.002887279 0.6502157 -0.03167651
0.01405427 0.846928 -0.0213286
-0.005243883 0.8116372 -0.03522062
-0.001451746 0.7326859 -0.03382798
0.01907565 0.8570065 0.01297454
-0.03690407 0.6593206 0.03147826
-0.02513301 0.722113 -0.03573419
-0.04992528 0.8599999 0.01649855
-0.05300519 0.6169907 -0.00547236
0.01271306 0.6379315 0.02422895
-0.04341803 0.6560434 -0.02503747
0.005483136 0.7233696 -0.02998056
-0.002316266 0.7082771 -0.03417923
-0.04236194 0.6383498 -0.02616452
-0.04107536 0.8692755 -0.02733654
-0.02794323 0.7050174 0.03592989
0.02063516 0.7611455 -0.006003818
-0.003393695 0.7037448 0.03565326
-0.04810685 0.84196 -0.01869702
-0.05307296 0.8368554 -0.004902751
-0.01890273 0.9266336 -0.03546016
-0.03955887 0.9369937 0.03204535
-0.00764966 0.8871262 0.03709749
-0.06365 0.9314978 -0.01504176
0.0113969 0.8802462 -0.02461898
-0.06067379 0.8891468 0.0260475
-0.03764767 0.8887089 0.03113366
-0.02779534 0.9184567 -0.03674263
-0.05966508 0.9457268 -0.02265815
-0.00318177 0.9023143 -0.03519336
-0.05568248 0.8972728 0.0327552
-0.00878486 0.9047939 0.03759138
-0.05492036 0.9093184 0.03740129
-0.0539507 0.9052302 -0.03503598
-0.03811642 0.9414705 -0.02730817
-0.05776055 0.9501567 0.01732862
-0.05589798 0.8794584 -0.004262412
-0.04269618 0.8834987 -0.0256092
-0.05423701 0.8902208 -0.02595417
-0.01972353 0.9378799 -0.03011826
-0.0541905 0.8821461 -0.01396176
-0.04209185 0.9526427 -0.009515096
-0.06360558 0.9288642 0.03588731
-0.05514972 0.9220077 -0.03645382
-0.02139907 0.8904024 0.03770228
-0.05843239 0.9384363 -0.02959941
-0.04318914 0.9480414 0.02089374
-0.06296017 0.9135079 -0.03653879
-0.02478389 0.9539723 -0.0001804862
-0.007779017 0.9167888 0.03813162
-0.01711041 0.9430707 0.02703481
-0.03490308 0.8922162 -0.03175592
-0.06311389 0.9539026 -0.0004425935
-0.02967668 0.9513296 -0.01329666
-0.06341164 0.8845193 -0.01842617
-0.04799797 0.9172018 0.03814321
-0.03046087 0.9449121 0.02514633
0.0009058267 0.5424912 -0.03551178
0.006679237 0.5107923 0.004923588
-0.06882674 0.5579666 -0.04669848
-0.01912706 0.5090858 -0.04280384
-0.004599854 0.570753 0.03901505
-0.0164065 0.5908092 -0.03886277
-0.02452998 0.5258964 0.05020629
-0.01273188 0.5223016 -0.04252883
-0.03361601 0.5608039 -0.04387685
-0.05196048 0.5645723 -0.04098896
0.01693693 0.5354079 0.001724761
-0.05735825 0.4883379 -0.04522721
-0.03704675 0.5292635 0.05469401
0.02166693 0.5903322 0.01092785
-0.04825833 0.5896389 -0.02234786
-0.03387471 0.4712955 -0.004537331
-0.03041577 0.4782643 0.02378372
-0.03147783 0.5089076 -0.04968343
0.01598777 0.5392619 0.01370285
-0.01216631 0.5463163 -0.04335072
-0.01581561 0.5434933 0.04581758
-0.02704585 0.5490774 -0.04727494
-0.04690036 0.5440896 -0.05307608
-0.02071986 0.5024032 0.04134053
-0.059405 0.549877 -0.05155464
-0.04324807 0.4931043 0.04708034
-0.03842015 0.5167439 -0.05403995
0.001278251 0.528089 0.03277133
-0.05698781 0.4665306 -0.005270731
0.01343134 0.5271775 -0.008036469
-0.03696302 0.5134248 0.05363102
-0.02797617 0.5683562 0.04193507
0.01584175 0.5781832 -0.0230523
-0.01448251 0.4882505 0.02031286
-0.06161835 0.5092619 -0.05571201
-0.01426816 0.5796138 -0.03945676
-0.05561378 0.5686466 0.03747372
-0.002772614 0.4966016 0.007549989
-0.01770388 0.5162796 0.0450221
-0.03272155 0.4792401 -0.02704329
-0.04985558 0.5012369 0.05288821
-0.004038826 0.4952637 -0.008003227
0.005256131 0.585934 0.03357644
-0.001516074 0.5603689 -0.03754434
-0.001872078 0.510892 0.02759269
-0.04278639 0.5570368 0.04684279
0.0001748204 0.5274074 -0.0329918
-0.03403442 0.4826998 0.03362302
0.0160636 0.5891057 0.02304275
-0.0467921 0.5314398 -0.05609562
0.0009476095 0.5733213 -0.03571424
0.01221238 0.5543015 -0.02582472
-0.03952315 0.5714518 -0.03317279
-0.008344203 0.496148 0.02214633
0.008897066 0.545585 0.02889563
-0.005025938 0.5066594 -0.02788251
0.01803324 0.5533481 -0.01564556
-0.04050201 0.4740605 -0.02333556
-0.06194054 0.5795891 -0.01664819
-0.0481995 0.5554233 -0.04776991
-0.04869764 0.4723564 0.02454449
-0.02765872 0.5103498 0.04899156
-0.01601695 0.573307 0.04102976
-0.01842813 0.488093 -0.02536011
-0.06519581 0.5686848 -0.03666564
-0.05911462 0.5791365 0.01872184
-0.0678683 0.4973843 0.05166401
0.006427288 0.5881525 -0.0319725
-0.02316373 0.5923581 0.03884684
-0.03492374 0.4905826 0.04199235
0.01163329 0.5612426 0.02806972
0.01669313 0.5727823 0.02251683
-0.02569731 0.4758266 0.008230291
-0.05416656 0.4881883 0.04563634
-0.04803091 0.5480231 0.05231616
-0.02237069 0.5981808 -0.02673153
-0.05506387 0.5899453 -0.005021523
-0.05849917 0.5442274 0.05471967
-0.01472413 0.5620234 0.042732
0.01012349 0.5280579 0.01966486
-0.01090838 0.592876 0.03909826
0.007250369 0.5131083 -0.00836606
-0.06394313 0.5821552 0.0003242544
0.001550138 0.5020124 -0.002340924
0.002224222 0.5070522 -0.01468827
0.02337015 0.5853698 0.001943039
-0.04433777 0.4859484 -0.04106423
-0.05984657 0.575104 0.02803479
-0.04176004 0.5914526 0.02997795
-0.06702186 0.4662359 0.001780738
-0.0243944 0.4917419 -0.03564515
-0.1462016 0.9488066 0.006395618
-0.09755188 0.9279759 -0.03577009
-0.1247718 0.9342443 0.03476376
-0.08759692 0.9638683 0.02697201
-0.08097629 0.9012167 -0.03355239
-0.1456576 0.9475173 -0.007770144
-0.145393 0.9189304 -0.008722841
-0.09489321 0.8871758 0.005397659
-0.1406696 0.9154425 -0.01962264
-0.08503626 0.8864275 0.02905556
-0.08466223 0.8826822 0.000354934
-0.1316535 0.9033557 0.002017816
-0.1159812 0.9558636 -0.03615715
-0.121441 0.8988919 -0.01657438
-0.1449352 0.9091969 0.003843399
-0.09083363 0.8853728 0.01592191
-0.1282671 0.9639541 -0.02690758
-0.133727 0.904243 0.01778822
-0.08021459 0.963938 -0.01680213
-0.1182257 0.8974549 -0.002625995
-0.09200096 0.885924 -0.00765927
-0.1001229 0.9348817 0.03699894
-0.1422296 0.9329731 -0.01686438
-0.1398835 0.9614908 -0.02055109
-0.1347935 0.9350522 -0.02651627
-0.138022 0.9465895 0.02449999
-0.1462952 0.9206008 0.005446497
-0.109821 0.8937422 0.006526929
-0.07397197 0.9489057 -0.01782808
-0.07002139 0.90242 -0.03407591
-0.1311853 0.9639218 -0.006602346
-0.06949002 0.9356463 -0.03150921
-0.08568882 0.9039278 0.03591303
-0.1451952 0.9636512 -0.008926653
-0.07299714 0.9463506 0.0229769
-0.09396198 0.8924212 -0.03357909
-0.128838 0.9147121 0.03255357
-0.09995811 0.9639003 0.006876047
-0.1230601 0.9571003 0.03551973
-0.1420698 0.9452442 -0.01713917
-0.1201202 0.8991581 0.03645425
-0.08050218 0.8808686 -0.01014131
-0.1256328 0.93555 -0.03288929
-0.09218957 0.9434823 0.03397803
-0.1159169 0.8964857 -0.03190788
-0.1465549 0.9389495 -0.000261728
-0.08595151 0.925454 0.03695597
-0.1138554 0.8954875 0.02524759
-0.1176064 0.9446422 -0.03581036
-0.0702 0.893123 0.03001982
-0.09304893 0.9060163 -0.03547088
-0.07561648 0.962316 0.01717844
-0.145103 0.9611114 0.01070358
-0.108053 0.8929974 -0.01422673
-0.1438208 0.9087274 -0.009249255
-0.06979613 0.8935478 -0.0290042
-0.126492 0.9011385 -0.03176806
-0.134887 0.9048129 -0.01959668
-0.116275 0.9294928 -0.03614158
-0.115902 0.9197099 0.03751466
-0.1103631 0.9629215 0.03804196
-0.07311836 0.8776041 -0.0004040488
-0.1397426 0.9144781 0.02231433
-0.08650715 0.9638863 0.01569651
-0.08427449 0.9639105 0.0004732735
-0.1037817 0.8592424 -0.01969908
-0.1030385 0.8837553 -0.03639118
-0.09133229 0.8728818 -0.03240019
-0.09730962 0.8591847 0.01654318
-0.1310844 0.8599788 -0.01180045
-0.1137016 0.866486 0.03623318
-0.1410664 0.8669008 0.01352
-0.1193603 0.859199 0.007539297
-0.09795392 0.866526 0.03553155
-0.09901658 0.8592272 -0.01008622
-0.122211 0.860135 -0.02337308
-0.1371694 0.8793176 0.02549273
-0.08615709 0.8612379 -0.02402919
-0.07590625 0.8719089 0.01791318
-0.08291151 0.8712224 -0.02617531
-0.1239441 0.8720402 0.03486138
-0.07327878 0.8663669 -0.0100508
-0.08125654 0.8642259 0.02407111
-0.08201426 0.8744621 0.02644249
-0.07627919 0.8735105 -0.01823714
-0.1453689 0.8899764 0.01027571
-0.140071 0.892282 0.02178923
-0.1450544 0.9037207 0.01368889
-0.07314648 0.8627001 0.002959762
-0.1466185 0.89994 -0.0007378012
-0.1033761 0.864653 -0.03434521
-0.08877309 0.8689775 0.03201349
-0.1062196 0.8921742 -0.003890075
-0.1023364 0.8905019 -0.02664405
-0.09856992 0.8888292 -0.01699508
-0.1116877 0.9848776 -0.03663824
-0.09120449 1.02246 -0.01052399
-0.07171717 0.9781559 -0.001225016
-0.1351578 1.024149 -0.03430946
-0.09056181 1.02094 0.02699455
-0.15665 1.017947 -0.02875676
-0.07140493 0.9774293 0.009416809
-0.1474559 1.047769 -0.006820101
-0.1021177 1.013906 0.03805855
-0.1125612 0.9923015 0.03809964
-0.148537 0.9886636 -0.02920056
-0.1519925 0.9742606 0.007103716
-0.141986 1.032372 -0.02995116
-0.13026 1.027861 0.03421988
-0.1184059 1.032175 0.03169488
-0.1215751 0.9831288 -0.03454416
-0.1259925 1.040803 -0.0219347
-0.1329394 0.9915255 -0.03130879
-0.1370579 1.017359 0.03774234
-0.1476911 1.009342 0.03821125
-0.0794818 0.9957603 0.02539878
-0.07492743 0.9837345 -0.02467658
-0.09089791 1.021739 0.004506188
-0.1119371 1.044801 -0.0153931
-0.1355363 1.046807 -0.01037341
-0.129142 0.9698149 0.03244629
-0.1270565 1.043752 0.01898627
-0.103548 1.032927 -0.02956201
-0.1421474 0.9738066 0.01827319
-0.08748716 0.9731863 -0.02976736
-0.1012751 1.045338 -0.004581858
-0.1350753 0.9655477 0.008328703
-0.08584452 1.010252 0.005836437
-0.1157591 1.032242 -0.03004644
-0.09552752 1.032289 -0.01296088
-0.1391415 0.9752171 -0.02149482
