VERSION .7
FIELDS x y z
SIZE 4 4 4
TYPE F F F
COUNT 1 1 1
WIDTH 1511
HEIGHT 1
VIEWPOINT 0 0 0 1 0 0 0
POINTS 1511
DATA ascii
-0.02808477 -0.2107233 0.5888491
0.01640804 -0.144113 0.5766084
0.05545054 -0.1920831 0.5372002
-0.06572518 -0.118822 0.5780578
-0.03930533 -0.08208154 0.478667
-0.0705 -0.1001747 0.5310817
-0.0564405 -0.1329868 0.5788499
-0.03662512 -0.07828276 0.511825
-0.04412985 -0.1728741 0.4815598
0.001756568 -0.1017044 0.5789151
0.05782161 -0.1617383 0.5239052
-0.02400499 -0.1792088 0.5737315
0.04138725 -0.1200285 0.4805425
0.01971031 -0.1043509 0.4717389
0.02234352 -0.1055694 0.5491163
-0.06167912 -0.1779801 0.4902189
0.03789244 -0.1759049 0.5648411
-0.0465849 -0.194041 0.5068849
0.03594785 -0.1223919 0.5665023
0.007314137 -0.1778854 0.4635353
-0.007921194 -0.1717604 0.4635597
0.0535064 -0.1388355 0.5432547
-0.004406115 -0.1407937 0.5788955
-0.0633022 -0.1861818 0.529338
0.01669084 -0.1029537 0.5664862
-0.03275674 -0.09419619 0.5699888
0.02382681 -0.1241313 0.5738293
0.030318 -0.1119689 0.4717112
-0.04277937 -0.09104198 0.5649745
-0.00528229 -0.09278604 0.5057983
-0.02820833 -0.08217748 0.4761936
-0.05295219 -0.08713976 0.5609309
-0.01880307 -0.09924369 0.4660858
0.0298665 -0.1629167 0.4713896
-0.002798042 -0.09393559 0.5513555
-0.06292845 -0.1665648 0.5650476
-0.007934757 -0.1377608 0.4630761
-0.02371842 -0.09134814 0.5738084
0.02126023 -0.1289824 0.4672151
-0.04090077 -0.1289674 0.4630018
-0.01557734 -0.08802222 0.5317077
0.01064712 -0.1001571 0.5232342
-0.03372136 -0.07962641 0.5265839
-0.05418252 -0.07015842 0.5022802
-0.01902078 -0.1132991 0.4643689
0.02197724 -0.1053999 0.5165586
-0.04687385 -0.07354036 0.4950564
0.04376987 -0.1499388 0.4830184
0.04923865 -0.1313286 0.5514677
-0.01343045 -0.08901563 0.5680047
0.0542426 -0.1359048 0.5009016
0.04976329 -0.1468667 0.4915581
-0.03798929 -0.1822635 0.477358
0.02719565 -0.1078146 0.5067642
0.009660391 -0.1134443 0.4639185
0.02662784 -0.1770183 0.5723927
-0.02701942 -0.08272761 0.4896654
0.04846513 -0.1253789 0.4892967
-0.0471038 -0.1570367 0.4704705
0.03581976 -0.1910953 0.5664221
-0.007385544 -0.166279 0.5784355
0.04112557 -0.1142604 0.4913986
-0.02034361 -0.1668599 0.4667802
-0.04607667 -0.1308544 0.5789299
-0.05539194 -0.1881698 0.5379361
0.03964203 -0.1135739 0.5190926
0.03726584 -0.1402639 0.4766607
0.05684876 -0.1821327 0.5095459
-0.04674736 -0.145339 0.465449
0.03038783 -0.1336062 0.5703686
-0.0531446 -0.07063869 0.5245935
0.05732001 -0.1526758 0.513528
0.05183297 -0.119215 0.5220369
0.05025083 -0.1184829 0.5118144
-0.009123272 -0.1775013 0.5782313
-0.01936445 -0.188741 0.5754733
-0.04534095 -0.1767931 0.5574906
-0.06051098 -0.1030623 0.5728951
-0.06495739 -0.07381262 0.5027487
0.03385865 -0.1660646 0.567956
-0.03538476 -0.1679497 0.4745204
0.05154923 -0.186858 0.4944467
-0.02314144 -0.1086548 0.5763013
0.01224422 -0.1008961 0.5572089
-0.01723044 -0.159648 0.576323
0.01009642 -0.1570079 0.4639406
-0.02042099 -0.1348537 0.463289
-0.008762622 -0.09371437 0.578276
0.02865565 -0.1381068 0.4707871
0.01131485 -0.1004661 0.5439239
4.750211E-06 -0.09523252 0.5639963
0.05047882 -0.1875297 0.5493469
-0.03771335 -0.1045125 0.4684879
0.03144423 -0.1549402 0.5696613
-0.06443733 -0.07179117 0.5313867
0.05780225 -0.1378206 0.5226066
0.02164146 -0.1892473 0.4673867
-0.05179681 -0.1209223 0.5784132
0.01098343 -0.1003127 0.5035092
-0.06511453 -0.07101065 0.516589
-0.04121713 -0.07754511 0.5614908
-0.04848051 -0.08471009 0.4835548
0.04573293 -0.1755832 0.4855681
0.05659024 -0.1545101 0.5335907
-0.03761214 -0.1368016 0.5783485
-0.0522138 -0.1904171 0.4962161
-0.06951357 -0.1743104 0.5568202
0.05690326 -0.1331404 0.51021
-0.06026987 -0.07910642 0.4912145
0.006022448 -0.114224 0.5785848
0.001420206 -0.0958875 0.474425
0.04293114 -0.1580607 0.5599276
-0.02451129 -0.0838882 0.5552901
-0.03687373 -0.07816772 0.5472331
-0.01050036 -0.0903715 0.4690503
0.0001292519 -0.1534442 0.5789966
0.05390631 -0.1589976 0.5422422
-0.02768855 -0.08241798 0.5454712
-0.007067278 -0.09196009 0.4802004
0.02950918 -0.1088851 0.5298248
-0.05844526 -0.1851059 0.507147
0.003647749 -0.1701703 0.5787641
0.0413335 -0.1398018 0.5616276
-0.009650507 -0.161789 0.4638497
-0.02878422 -0.150876 0.5749433
-0.04903039 -0.09644429 0.4730636
-0.03640188 -0.1162946 0.4644243
-0.03693436 -0.1404873 0.4642161
0.04860874 -0.1461597 0.5524781
0.05678402 -0.1434289 0.5095756
0.05082721 -0.1632013 0.4933256
-0.01708208 -0.141735 0.5780944
-0.01666075 -0.08752088 0.5459955
0.04497277 -0.1160406 0.5444494
0.05655809 -0.1267752 0.5335153
0.04518452 -0.1353001 0.4847944
-0.004644922 -0.1210488 0.4630244
-0.05062894 -0.1538309 0.5732506
-0.04880408 -0.1214102 0.4634957
0.05503083 -0.1251258 0.5029739
-0.01383539 -0.1835749 0.4647081
0.01633159 -0.1417471 0.4654177
-0.03461402 -0.0936441 0.4728766
0.02601731 -0.1519428 0.4692624
-0.02699162 -0.08274047 0.5013974
-0.007158916 -0.09191768 0.5169745
-0.05485709 -0.1713856 0.5601157
-0.02716593 -0.08265981 0.5159577
0.01298004 -0.1051353 0.5774105
0.03129825 -0.1242383 0.4722913
-0.054559 -0.1313137 0.4630553
-0.0638044 -0.09342 0.4750921
0.007676038 -0.1315286 0.4635457
-0.03628772 -0.1709765 0.5661827
-0.02570562 -0.153499 0.4671287
0.006818283 -0.06854941 0.5683571
-0.04133177 -0.06578223 0.4820218
0.05787245 -0.1014738 0.5174201
0.02201744 -0.07325885 0.568463
-0.004695539 -0.06663837 0.4762772
0.02541189 -0.0731847 0.4763408
-0.03955672 -0.06204882 0.506001
0.01101662 -0.06870691 0.5340675
0.0116599 -0.0687916 0.4946729
0.004496198 -0.09731086 0.4636984
0.04851091 -0.07750355 0.5025134
-0.02477938 -0.06453538 0.5659952
0.0301638 -0.07122767 0.5493896
-0.02507373 -0.06395552 0.5427162
0.04493406 -0.09020227 0.5576401
0.003486784 -0.08012259 0.463143
-0.01073647 -0.06584308 0.4930862
0.006713277 -0.09833677 0.4926024
0.03142099 -0.07139321 0.5155178
0.02799949 -0.09422714 0.470255
-0.0485501 -0.07276469 0.5399667
-0.01617128 -0.06661773 0.571031
0.0008326713 -0.06736617 0.5244389
0.02182884 -0.08644563 0.4672827
-0.008177882 -0.0661799 0.5630305
0.04603098 -0.07455856 0.5321527
-0.02037854 -0.06457366 0.5222138
0.005712152 -0.06800857 0.481749
-0.02028116 -0.06458648 0.4806001
0.04542162 -0.1162483 0.5548953
-0.02985211 -0.06332645 0.500331
0.04659322 -0.1049914 0.4864864
0.04964908 -0.09537148 0.4910335
0.03839541 -0.08109707 0.4798325
-0.02638137 -0.08302286 0.5671794
0.05602787 -0.1028268 0.5060844
0.01335016 -0.07719597 0.4658883
0.003770823 -0.06775299 0.5064517
-0.0118247 -0.06569979 0.5482928
-0.05645062 -0.06174949 0.5205531
-0.03454042 -0.07924742 0.5365436
0.003745571 -0.09696351 0.537756
-0.03442072 -0.06272498 0.5383387
0.03658174 -0.1121578 0.5503949
0.05774672 -0.1069795 0.5261348
0.01654107 -0.06943423 0.5569751
-0.04732266 -0.07333267 0.552241
0.02104797 -0.1049699 0.4958518
0.01851662 -0.06969431 0.5189962
0.05788388 -0.090685 0.5224143
-0.01862266 -0.08661306 0.507367
-0.0249345 -0.08369237 0.5348589
0.02102674 -0.07002477 0.5016245
-0.006242471 -0.06643471 0.5386189
0.05675081 -0.0903469 0.5324264
0.0186181 -0.08192149 0.5757092
-0.02144204 -0.06443365 0.5560945
0.04300978 -0.1151323 0.5313647
0.01168486 -0.08995698 0.464247
0.05016076 -0.08173031 0.5446003
0.0235062 -0.09190273 0.5739965
-0.003974357 -0.09339127 0.4919825
-0.03681138 -0.07819657 0.4960144
0.003298355 -0.09675658 0.5096273
-0.05096821 -0.06054646 0.5297363
0.05236405 -0.07863297 0.5240775
0.03448464 -0.07206646 0.4925759
-0.02943467 -0.0633814 0.4896983
0.005169705 -0.06905136 0.4711607
0.03538642 -0.0959654 0.5669221
0.04346602 -0.1059042 0.5593572
0.05230244 -0.09220053 0.5460445
0.05494628 -0.1054201 0.5395131
0.01909549 -0.06977051 0.4851974
-0.0431911 -0.06157033 0.4949233
-0.04834753 -0.06125969 0.543883
-0.03983158 -0.06766923 0.5625043
-0.00877516 -0.07740961 0.463738
-0.01727331 -0.08723745 0.4933397
0.04413728 -0.07352795 0.5141207
-0.00712157 -0.09193495 0.5394902
0.05265792 -0.1099281 0.4967043
0.05540567 -0.1184575 0.5425844
-0.04864392 -0.07272129 0.5118608
0.02924251 -0.0711064 0.5314128
0.04100525 -0.07787074 0.5557072
-0.01272606 -0.08934158 0.556407
-0.0392543 -0.06208862 0.5194085
0.03471394 -0.08287361 0.5665548
-0.03062961 -0.07143191 0.4718971
0.01501353 -0.1002124 0.4634653
0.05520363 -0.0889526 0.5040522
0.01124843 -0.07452527 0.5752695
0.04139849 -0.0736903 0.5431621
0.03612359 -0.1119458 0.5095068
0.0001915717 -0.06728177 0.4912694
-0.05199119 -0.06079805 0.5064961
-0.1124104 0.2256616 0.5179374
-0.1705162 0.2854972 0.4643518
-0.1440502 0.3510695 0.5249633
-0.1130712 0.3538856 0.5168915
-0.1822626 0.2685146 0.4932705
-0.1958533 0.2391158 0.5287401
-0.1482487 0.3419821 0.5426531
-0.1610911 0.3142298 0.541252
-0.07064971 0.299742 0.4659734
-0.07745427 0.3333917 0.5657845
-0.1437641 0.3488695 0.4972725
-0.1137321 0.3310741 0.4752488
-0.1606888 0.3150755 0.5709884
-0.1621032 0.2256829 0.4911301
-0.128372 0.2256256 0.5631172
-0.1587808 0.2676474 0.4675138
-0.1240243 0.2890062 0.5791708
-0.09567703 0.3514623 0.5043326
-0.0789026 0.2389353 0.5082647
-0.07900527 0.2307612 0.5327325
-0.1653307 0.278264 0.5765322
-0.08297236 0.3539155 0.516717
-0.0795137 0.3448196 0.4899749
-0.1420824 0.2963267 0.5793366
-0.1529929 0.3317615 0.5025482
-0.1720638 0.225647 0.536214
-0.1842607 0.2642093 0.4772202
-0.09180185 0.2522975 0.4817297
-0.1900595 0.2516459 0.5170166
-0.08791476 0.2981002 0.579272
-0.08785753 0.2267492 0.5537513
-0.07590841 0.2688704 0.572257
-0.1797262 0.2256369 0.548924
-0.1639847 0.2602307 0.5720174
-0.07676215 0.2527474 0.5596982
-0.1526705 0.3228253 0.4699113
-0.0965751 0.3032413 0.57881
-0.1045869 0.2811592 0.577226
-0.1731936 0.2881133 0.493379
-0.1497156 0.3388248 0.5265622
-0.0808304 0.2867275 0.464133
-0.1084281 0.2312667 0.4702685
-0.1619792 0.3123603 0.478486
-0.1140037 0.2414493 0.4676
-0.1635939 0.3088064 0.5595248
-0.144633 0.2637325 0.4640106
-0.168016 0.2993063 0.4885646
-0.1073214 0.25387 0.5715729
-0.1904342 0.2306931 0.5016792
-0.1650389 0.2373036 0.5713379
-0.1223006 0.3514144 0.5038494
-0.08819839 0.3530872 0.5322611
-0.1227198 0.2621651 0.4648752
-0.09108022 0.2834566 0.4647875
-0.1370094 0.2535947 0.4633205
-0.1784105 0.2767959 0.5478606
-0.1603934 0.2347833 0.4687411
-0.185412 0.2319547 0.4912505
-0.1639189 0.2957565 0.4633548
-0.1542393 0.3290221 0.5600249
-0.1835497 0.265689 0.5487934
-0.1089816 0.3116115 0.5772007
-0.1697254 0.2956025 0.5007356
-0.07349537 0.3536884 0.5270157
-0.1150255 0.254622 0.4672567
-0.1461689 0.2324739 0.5782945
-0.1543095 0.2501144 0.4663806
-0.1810103 0.2711638 0.564962
-0.07134577 0.3468346 0.5491852
-0.1587138 0.319384 0.5201522
-0.1128917 0.2654902 0.4678221
-0.1745943 0.2850732 0.5099953
-0.08063246 0.3100434 0.4651532
-0.1552759 0.3267736 0.5704309
-0.1725689 0.2894278 0.5380993
-0.09309021 0.3173086 0.4674896
-0.1191059 0.3131827 0.5767272
-0.128029 0.2257021 0.4669821
-0.1653116 0.3050817 0.5754973
-0.08146127 0.3197417 0.5743205
-0.09087009 0.2770382 0.5759956
-0.185473 0.2615448 0.5334128
-0.1712992 0.2922192 0.4784582
-0.1222564 0.2375124 0.5776655
-0.1363919 0.2320351 0.4633001
-0.07944658 0.3507864 0.5408024
-0.09102067 0.2611312 0.4753545
-0.08193919 0.3240866 0.4706608
-0.18975 0.2522866 0.5524165
-0.1432143 0.3528876 0.5104755
-0.1778411 0.2446242 0.4815931
-0.09336938 0.2341971 0.5607657
-0.1505219 0.2729005 0.5776372
-0.1490372 0.3403198 0.4902957
-0.1342717 0.3538201 0.527418
-0.100583 0.2744822 0.4676606
-0.1861857 0.2600231 0.5100535
-0.08261824 0.2270586 0.5440254
-0.1711358 0.2258397 0.5672071
-0.1710606 0.2926766 0.5516859
-0.09861131 0.3445148 0.4893886
-0.08259743 0.2372132 0.4985248
-0.0715189 0.2469743 0.5516338
-0.1059161 0.3504583 0.541671
-0.1425553 0.3096246 0.4650323
-0.09638176 0.2630265 0.5689034
-0.07456968 0.2463686 0.4920381
-0.1060206 0.3231415 0.4701977
-0.1588113 0.3191426 0.5588426
-0.1581112 0.3207154 0.483627
-0.1378049 0.3273835 0.4725778
-0.1886611 0.2546601 0.5267888
-0.08984696 0.3129694 0.5768178
-0.1661044 0.3034011 0.5344194
-0.1224108 0.3528137 0.5334534
-0.1410144 0.3438016 0.554258
-0.1781782 0.277357 0.4735118
-0.07108333 0.3392177 0.5599408
-0.1144862 0.3307137 0.5678123
-0.1609002 0.3146673 0.5098577
-0.1539546 0.3296632 0.5275932
-0.1234642 0.2729366 0.4645177
-0.1088592 0.2365432 0.5726061
-0.1550743 0.3272319 0.5419807
-0.1712437 0.269202 0.4699391
-0.1770279 0.2797762 0.5575276
-0.100052 0.244892 0.5667159
-0.1288975 0.3048183 0.464051
-0.1715184 0.2917115 0.5210967
-0.09740564 0.2413055 0.4780196
-0.1473624 0.3439206 0.5135526
-0.1569723 0.3231588 0.5061033
-0.07137933 0.319905 0.4685807
-0.1473293 0.3347724 0.4781845
-0.1246782 0.2490511 0.5781971
-0.1258433 0.2350679 0.4641761
-0.1550277 0.3273709 0.4937862
-0.1739418 0.2343315 0.4775704
-0.1852617 0.2619759 0.565327
-0.07876649 0.2682756 0.4705424
-0.1390456 0.273866 0.4634304
-0.1203859 0.3448885 0.4899601
-0.1039664 0.2554773 0.4730473
-0.1177606 0.3020163 0.4637143
-0.1038321 0.3535755 0.5289412
-0.1316111 0.3281956 0.5695689
-0.1395317 0.3342589 0.5649283
-0.130666 0.3479128 0.5473214
-0.1051672 0.352932 0.509731
-0.1211324 0.2265152 0.5773345
-0.1599783 0.3097718 0.4649681
-0.09739001 0.3460729 0.5506843
-0.09810886 0.3365211 0.5628475
-0.1560999 0.2407825 0.5755764
-0.1329557 0.3168443 0.4673019
-0.1535772 0.262306 0.5764668
-0.1076226 0.2678277 0.5736299
-0.1123346 0.2918482 0.579155
-0.1437934 0.2564886 0.5786573
-0.1681629 0.2989269 0.5666231
-0.1742947 0.2363142 0.5646644
-0.1762475 0.2482096 0.5625808
-0.1648805 0.3060588 0.5183846
-0.1911769 0.249217 0.5349538
-0.1988065 -0.1183977 0.4959905
-0.1902943 -0.1366419 0.5762627
-0.1649518 -0.1385786 0.5136391
-0.1463585 -0.1787634 0.5176646
-0.1426896 -0.1881946 0.5183005
-0.1872838 -0.09035788 0.5644546
-0.1955655 -0.08481045 0.4832986
-0.1624687 -0.1602777 0.4722719
-0.1655752 -0.1372018 0.4763908
-0.1986653 -0.1194789 0.507289
-0.1693543 -0.129077 0.5293189
-0.1673557 -0.1526285 0.5738826
-0.1947823 -0.1474012 0.4791926
-0.1530331 -0.1789893 0.4918721
-0.1938512 -0.08258438 0.5583972
-0.1773973 -0.1859216 0.5157142
-0.175987 -0.1147216 0.5022097
-0.1966612 -0.134729 0.5418785
-0.1885452 -0.08758934 0.511076
-0.1917132 -0.1712431 0.5265121
-0.1479447 -0.1842507 0.5416031
-0.1813326 -0.1701597 0.4817099
-0.2027521 -0.0846781 0.5509806
-0.1552909 -0.1594749 0.5364671
-0.1969706 -0.1323563 0.5129805
-0.1926678 -0.1650365 0.5096604
-0.1991261 -0.1159918 0.5236887
-0.185028 -0.1622292 0.4760262
-0.1572922 -0.1551084 0.4843152
-0.196816 -0.1335205 0.5009556
-0.1905273 -0.1695799 0.5472597
-0.1759515 -0.1324666 0.4631581
-0.1686651 -0.1305414 0.497914
-0.1810489 -0.1037855 0.5060248
-0.1776846 -0.1110785 0.5345421
-0.1831748 -0.1752249 0.5518519
-0.1674636 -0.1331877 0.5605282
-0.1820431 -0.1505246 0.5745783
-0.1954935 -0.1436144 0.5618944
-0.1809682 -0.179666 0.4964654
-0.1643336 -0.1411181 0.4628337
-0.1888117 -0.1628003 0.5616118
-0.1651258 -0.1654352 0.5659609
-0.1762329 -0.1141605 0.4650089
-0.153301 -0.1720915 0.4801688
-0.1946194 -0.1502169 0.5154352
-0.1851619 -0.1816155 0.5286937
-0.1827052 -0.1002577 0.57095
-0.2019154 -0.07615209 0.5415369
-0.2034657 -0.0830346 0.5301882
-0.1581829 -0.1532448 0.5614554
-0.1885302 -0.087612 0.4989975
-0.1856532 -0.09381671 0.4829629
-0.1969489 -0.09247261 0.4768
-0.1625105 -0.143834 0.4879051
-0.1884584 -0.1241943 0.5784781
-0.1768289 -0.1129495 0.5616752
-0.1738753 -0.1244968 0.5802956
-0.1698798 -0.1866575 0.5252194
-0.1507451 -0.1692944 0.5311565
-0.1903167 -0.1732376 0.503971
-0.173346 -0.1204544 0.534179
-0.1971202 -0.1024813 0.4717604
-0.1868612 -0.104857 0.4682119
-0.1628584 -0.1431171 0.531853
-0.1608151 -0.1475088 0.5016976
-0.1703164 -0.1270114 0.5465256
-0.1951139 -0.1464491 0.5006062
-0.1812578 -0.1033719 0.5537783
-0.195893 -0.07172115 0.5250622
-0.2029283 -0.08709998 0.5098786
-0.1515436 -0.1675598 0.5198997
-0.2037724 -0.0803189 0.5017339
-0.1815621 -0.1026893 0.5221587
-0.1528577 -0.1647569 0.5661635
-0.1979032 -0.1252505 0.4859386
-0.1922112 -0.07969306 0.5441642
-0.1861105 -0.09286848 0.5332081
-0.1647832 -0.1389896 0.5722697
-0.1482317 -0.1747412 0.5502306
-0.1948441 -0.1485362 0.5481182
-0.2014798 -0.09606825 0.5607093
-0.200493 -0.1056257 0.5447067
-0.2007362 -0.1037493 0.5081494
-0.1615372 -0.1459638 0.5210317
-0.2021172 -0.09327705 0.5299677
-0.1736283 -0.1756879 0.4868405
-0.1660484 -0.1362323 0.5432939
-0.1609733 -0.1856849 0.5324658
-0.1871991 -0.09053147 0.5527927
-0.1977161 -0.1234512 0.4721386
-0.2010623 -0.1012806 0.5181839
-0.1646952 -0.1687277 0.4789104
-0.1791678 -0.1465148 0.4657822
-0.1690067 -0.1298115 0.5083233
-0.1959786 -0.1085395 0.5729423
-0.2025603 -0.0722234 0.5169982
-0.1955331 -0.07248685 0.5098134
-0.196242 -0.1124303 0.4686209
-0.194106 -0.1540989 0.4928286
-0.20265 -0.08920249 0.4949336
-0.1620282 -0.1730545 0.5584804
-0.1843795 -0.09659417 0.5140926
-0.1762792 -0.1141073 0.5238526
-0.1493277 -0.18494 0.5063663
-0.1736075 -0.1732803 0.5582156
-0.1765244 -0.113594 0.5444973
-0.1860927 -0.1805153 0.5114795
-0.1495279 -0.1719089 0.5109901
-0.1934121 -0.1594097 0.5434903
-0.1783411 -0.1096122 0.4747169
-0.1921085 -0.1610221 0.4854016
-0.1984268 -0.1213305 0.5574278
-0.1717158 -0.1240003 0.5629293
-0.1942288 -0.1527766 0.5579377
-0.1521482 -0.1662306 0.491523
-0.1728801 -0.1446925 0.5767729
-0.2002806 -0.1072517 0.5604019
-0.1907847 -0.1521564 0.5684046
-0.1840025 -0.09743258 0.5439112
-0.1188089 -0.1847213 0.5056868
-0.1608502 -0.09124643 0.5732138
-0.1637723 -0.05836058 0.5455841
-0.09315624 -0.1763531 0.487767
-0.1394391 -0.1468442 0.5760373
-0.1404277 -0.1049404 0.5788306
-0.1452343 -0.08222032 0.578243
-0.1030778 -0.1074411 0.5748575
-0.151393 -0.05832519 0.501148
-0.09285811 -0.09363274 0.5668939
-0.08674942 -0.1548958 0.5726697
-0.110252 -0.08125699 0.4691574
-0.1937155 -0.05874181 0.5228
-0.1299828 -0.09166902 0.4633784
-0.1387436 -0.05837795 0.5674041
-0.1633997 -0.07699263 0.5719483
-0.1059775 -0.1458259 0.4655907
-0.09623627 -0.1385131 0.4638669
-0.1126811 -0.1863611 0.5269809
-0.188639 -0.07625623 0.4950675
-0.08805497 -0.1214844 0.4635141
-0.0749071 -0.1831623 0.5010613
-0.1204005 -0.1786326 0.491386
-0.08740872 -0.1385247 0.5781305
-0.1526231 -0.1583011 0.4710539
-0.1844951 -0.05833676 0.5156718
-0.1195143 -0.1643147 0.4751816
-0.1195509 -0.05830225 0.4723747
-0.07612326 -0.07259391 0.5348316
-0.1317726 -0.1841571 0.5382699
-0.1238205 -0.1863213 0.5271723
-0.127441 -0.1745949 0.5563765
-0.08127289 -0.1684052 0.4787604
-0.1419616 -0.1050575 0.4634001
-0.1107046 -0.1827034 0.4996321
-0.1804754 -0.06020105 0.4842162
-0.1092956 -0.1168081 0.4642839
-0.09497179 -0.05834961 0.5318218
-0.1304616 -0.1607393 0.4726732
-0.08727454 -0.147861 0.4663283
-0.1093575 -0.0921125 0.5725111
-0.1912985 -0.06246728 0.5378407
-0.1428715 -0.172962 0.558524
-0.08506823 -0.05979845 0.493167
-0.09020801 -0.07954268 0.5567023
-0.07569435 -0.09299843 0.475597
-0.1405746 -0.164417 0.5666104
-0.08571647 -0.1822073 0.5433361
-0.1531296 -0.06566449 0.4657227
-0.07763852 -0.09458308 0.5677519
-0.1629855 -0.1166366 0.5776823
-0.1461967 -0.1412861 0.4644709
-0.1383009 -0.09203762 0.5789577
-0.1189476 -0.1060125 0.4650879
-0.1827637 -0.06426339 0.5550779
-0.1867977 -0.06627971 0.4933625
-0.09867642 -0.1174654 0.5778455
-0.0981351 -0.1381546 0.5782102
-0.0889116 -0.1835962 0.5019492
-0.08169124 -0.06937701 0.5004994
-0.09130283 -0.06655802 0.4839561
-0.0956476 -0.1145069 0.4649297
-0.1036649 -0.107723 0.4670962
-0.1804313 -0.1051073 0.4900218
-0.1177339 -0.1696174 0.561981
-0.09537454 -0.1000186 0.4708912
-0.1433275 -0.1761673 0.4875964
-0.153467 -0.106365 0.5769168
-0.08080661 -0.1078034 0.5750099
-0.1112943 -0.1770993 0.5530844
-0.1430306 -0.1691117 0.4793734
-0.08343077 -0.087051 0.4811608
-0.1645616 -0.06625596 0.4707278
-0.1248602 -0.06779836 0.5779909
-0.1070818 -0.1691354 0.5624646
-0.127349 -0.09826203 0.5783738
-0.07856824 -0.1436857 0.5769731
-0.09804215 -0.06871715 0.5650095
-0.07797825 -0.06653243 0.5171973
-0.1039268 -0.06132594 0.472707
-0.1428335 -0.06893121 0.5786114
-0.1128773 -0.06851709 0.5742884
-0.1216759 -0.1465752 0.5761476
-0.09074599 -0.1036178 0.5730901
-0.1706326 -0.1262798 0.4859103
-0.1725559 -0.09543809 0.5691743
-0.09323869 -0.1569472 0.4703892
-0.1308847 -0.173144 0.4837278
-0.1830655 -0.07823879 0.5545895
-0.1174472 -0.1840166 0.5387374
-0.1071508 -0.1840963 0.5384766
-0.1563766 -0.100988 0.4664986
-0.09617481 -0.1491823 0.5751442
-0.1756658 -0.09578638 0.4734422
-0.08662755 -0.1051484 0.4681377
-0.08166265 -0.07884391 0.5500434
-0.1173349 -0.1866108 0.5165483
-0.07976864 -0.05907962 0.5067045
-0.136114 -0.142345 0.4646915
-0.1144603 -0.1403498 0.4642619
-0.1436177 0.02194557 0.4716108
-0.08669128 0.04703133 0.5116156
-0.1782264 -0.04525442 0.494379
-0.1200474 0.1264311 0.4737063
-0.0978414 -0.02194518 0.553636
-0.1428442 0.1013631 0.4715745
-0.1046005 0.06659053 0.4820817
-0.1177169 0.01801261 0.5677732
-0.08582016 0.07727598 0.5204779
-0.1586853 -0.04906303 0.5684813
-0.1019311 0.01611088 0.5579212
-0.1664644 -0.04304698 0.5606411
-0.162448 0.1944753 0.4788554
-0.1753348 0.005527914 0.5518348
-0.1847995 0.06977801 0.5107766
-0.08783638 -0.04086861 0.5069981
-0.1052926 0.09027307 0.5609056
-0.103625 -0.009167463 0.5593752
-0.1228506 0.03050305 0.5695021
-0.1685507 0.1413055 0.4833497
-0.1064289 -0.02606204 0.5615921
-0.1154808 -0.02789843 0.4753828
-0.08872768 0.1578582 0.5041922
-0.1164476 0.02100259 0.474996
-0.08622935 0.1767162 0.5147619
-0.1810991 0.02256064 0.5425617
-0.08628547 0.06497823 0.5143033
-0.1800542 -0.03501624 0.4976373
-0.1505737 0.186114 0.473392
-0.08588692 0.2083537 0.524465
-0.08633883 0.14079 0.5288849
-0.1857422 0.009432435 0.5257992
-0.1788423 -0.0317508 0.5466696
-0.1101975 0.03020523 0.5641628
-0.1603328 -0.01247923 0.5647488
-0.1441109 -0.03868717 0.5704163
-0.1835794 -0.05120701 0.5478925
-0.1800417 0.1819352 0.4977858
-0.1846988 -0.01119949 0.5322184
-0.1156928 0.1148948 0.4754032
-0.1123008 -0.05304822 0.5724403
-0.1778828 0.07335179 0.4939858
-0.0858373 0.0194883 0.5197462
-0.1022806 -0.01703882 0.4838787
-0.08946435 0.1975875 0.5024909
-0.1340682 -0.0007801056 0.5711698
-0.0883127 0.1100094 0.5054384
-0.08961669 -0.0001140237 0.5019752
-0.1463692 0.206459 0.5702389
-0.1191222 -0.02875555 0.5682317
-0.1774719 0.2183412 0.48598
-0.1004019 0.1424626 0.5566339
-0.1174733 0.07871793 0.5677356
-0.1194956 0.1975329 0.4739271
-0.1754375 0.1376219 0.4904881
-0.1141084 0.04200678 0.5662028
-0.09069254 0.1732341 0.4995826
-0.1008783 0.2071355 0.4854776
-0.1202158 0.1563647 0.5687649
-0.1083819 0.1519859 0.5630428
-0.180733 0.2104692 0.5435722
-0.1628928 0.1850256 0.5633697
-0.1472498 0.03258686 0.4724067
-0.1276141 0.1454182 0.5706263
-0.1279433 0.1351833 0.5706895
-0.1488442 0.03346561 0.5694616
-0.09036094 0.09648161 0.5003015
-0.1798757 0.05181746 0.4973615
-0.08643651 0.1037962 0.5295546
-0.1855138 0.07374202 0.5273545
-0.1131153 0.1812705 0.4765911
-0.1632339 0.1047842 0.4793108
-0.177215 0.1991737 0.5495327
-0.09370928 0.05851857 0.4940947
-0.1037154 0.1999783 0.5596204
-0.1157298 0.1280461 0.5670844
-0.1446898 0.1367375 0.4719346
-0.08627325 0.2168644 0.5404928
-0.08977111 0.02056915 0.5407775
-0.08884091 0.08050816 0.5382927
-0.1727728 0.1119038 0.5550048
-0.1858235 -0.03415491 0.5239935
-0.1169524 -0.04200196 0.5674557
-0.1536589 0.0183198 0.567942
-0.1384817 -0.04810941 0.4693863
-0.1767583 0.1688052 0.4924298
-0.184085 0.1105798 0.5077063
-0.1819665 0.1946906 0.5406583
-0.08601806 -0.003963292 0.51601
-0.09736936 -0.0006432086 0.5531244
-0.172214 0.1879099 0.5556312
-0.09399696 0.02958165 0.5485631
-0.1794033 -0.00379768 0.5457292
-0.1546314 0.150992 0.5676194
-0.1423407 0.09655885 0.570816
-0.1464901 0.08093326 0.570119
-0.1431961 0.1474876 0.4716422
-0.1760148 0.151262 0.5510625
-0.1708454 0.02777334 0.5568901
-0.08777551 0.06115703 0.5353352
-0.1090046 0.147673 0.4789816
-0.1231092 0.06248282 0.5695836
-0.09191395 0.07546286 0.4971889
-0.08738492 0.1366622 0.5087315
-0.08929162 0.03737955 0.5027698
-0.1789093 0.2060462 0.4956174
-0.1858554 0.0872371 0.5228112
-0.1758608 0.02403162 0.491012
-0.1845126 0.03789704 0.5329141
-0.1441419 0.1113708 0.5705307
-0.0872013 -0.0276622 0.5092481
-0.0933346 0.1192362 0.5476732
-0.1802891 0.1131571 0.4982091
-0.1049086 0.1332511 0.4818926
-0.08673739 -0.00495857 0.5307746
-0.1859196 0.1660023 0.5203061
-0.1730676 0.01250412 0.4876767
-0.1660887 -0.005340323 0.4811365
-0.1099339 0.03225403 0.478332
-0.128544 -0.03302881 0.5706577
-0.1249254 0.1175395 0.5700212
-0.1511698 0.1606423 0.473582
-0.1271158 0.142776 0.4719498
-0.1622959 0.02600752 0.4786194
-0.0893954 -0.05093986 0.5496069
-0.08610606 0.1597673 0.5265957
-0.0893705 0.120722 0.5026506
-0.1404826 0.1953672 0.4714414
-0.1581579 0.1172265 0.5660395
-0.183268 0.08806084 0.5051617
-0.1856684 0.1902121 0.5264291
-0.1173968 0.09541409 0.4746372
-0.1460616 0.1132728 0.4722134
-0.179352 0.1460522 0.4964249
-0.1114231 0.1615063 0.4775412
-0.1684118 0.08624534 0.483185
-0.1656204 -0.02084184 0.4808103
-0.1120148 0.1413703 0.5652321
-0.0940087 0.1180953 0.4936283
-0.1654306 0.03576957 0.4807281
-0.1803997 0.0370364 0.4983621
-0.1757119 -0.05265491 0.5606516
-0.1712647 0.1311463 0.5565476
-0.1086306 0.1971897 0.4792454
-0.1852322 -0.03340292 0.5125733
-0.09547826 0.2159594 0.4881751
-0.08759297 0.09339444 0.5345682
-0.1634511 0.1270323 0.4794741
-0.09317099 0.1859387 0.4951198
-0.144577 -0.01800664 0.5703559
-0.166949 0.006744176 0.5602998
-0.08775222 0.04707508 0.5352229
-0.1843247 0.1719172 0.5336836
-0.1716536 0.2204779 0.4773684
-0.1551081 0.1653398 0.5674208
-0.1830026 0.02842824 0.5043914
-0.08772048 0.186009 0.5351956
-0.1834888 0.1004826 0.5365744
-0.1858793 0.1775166 0.5219281
-0.08707879 0.1200109 0.5323566
-0.1015218 0.1847819 0.5576993
-0.1204165 -0.01042484 0.5687029
-0.09634197 0.1636624 0.5520732
-0.1405946 0.01362976 0.5710008
-0.09670183 0.1530807 0.4900562
-0.08730416 0.2125282 0.5090766
-0.1501075 0.21266 0.4732408
-0.1329413 0.06391697 0.4711967
-0.08809352 0.07289611 0.5061818
-0.1562274 -0.03120527 0.5667715
-0.1590856 0.07357548 0.4768439
-0.1787482 0.08632301 0.546925
-0.1339045 -0.03792864 0.4710791
-0.1544262 0.1718419 0.4747397
-0.17304 0.1005395 0.4877159
-0.1049187 0.2200675 0.4742777
-0.1232979 0.175173 0.472778
-0.1120294 0.09641086 0.5652036
-0.1871428 0.2167184 0.508102
-0.179525 0.03971873 0.545555
-0.1275544 0.04365693 0.4717985
-0.1701271 0.1429852 0.5577094
-0.08624013 -0.02016731 0.5277797
-0.1839052 0.1228246 0.5069352
-0.09201785 0.1574735 0.5453853
-0.0865836 0.09853111 0.5123661
-0.1699569 0.08942197 0.5578392
-0.1661317 0.2075198 0.561102
-0.1747214 0.05299698 0.5526739
-0.1192262 0.006393358 0.5682964
-0.1569927 0.003603131 0.5664622
-0.08590896 -0.02104087 0.516847
-0.0904357 0.004923552 0.5422074
-0.1452552 0.06988709 0.5703139
-0.1672634 0.1706104 0.5601831
-0.1026666 0.1728908 0.4836864
-0.1031136 0.008562669 0.4832042
-0.1062798 0.1734004 0.5616509
-0.1574921 -0.0516416 0.4701598
-0.1507121 0.04226361 0.4733263
-0.1325409 0.1183494 0.4712552
-0.09347042 0.0504484 0.5478156
-0.09443276 0.08780663 0.4929686
-0.09822845 0.09976213 0.5541663
-0.1667489 0.351589 0.5383686
-0.1926312 0.3322453 0.498548
-0.1922911 0.3352165 0.5317756
-0.1849191 0.3049768 0.5784467
-0.1955764 0.3102778 0.5119364
-0.1949311 0.3151429 0.5578078
-0.1829556 0.3292953 0.4749682
-0.1663353 0.3312768 0.567468
-0.1528143 0.3390601 0.5625238
-0.1970812 0.2988363 0.5263088
-0.1836752 0.3175867 0.5746782
-0.1989101 0.250629 0.5561337
-0.1879701 0.3373604 0.5538104
-0.1997232 0.2787898 0.4988496
-0.1527626 0.34461 0.5532056
-0.1629715 0.353785 0.5278484
-0.1980677 0.2913645 0.4987823
-0.1842969 0.2707996 0.4675595
-0.2033336 0.2513366 0.5361861
-0.1933841 0.2533858 0.4812271
-0.1857608 0.2927415 0.5791972
-0.18302 0.2753326 0.57696
-0.1928482 0.2868389 0.4657722
-0.1978402 0.2930567 0.5437174
-0.2019899 0.2615706 0.5019948
-0.1996373 0.2794504 0.4887538
-0.1975398 0.2692298 0.5699992
-0.200408 0.2618686 0.4793846
-0.1779902 0.3379175 0.4813616
-0.1948141 0.3087605 0.5688479
-0.2002478 0.2747708 0.5421161
-0.1999443 0.2770641 0.5572657
-0.2041639 0.2418334 0.5230089
-0.1951551 0.3134552 0.5398895
-0.202456 0.2580374 0.4921381
-0.1717324 0.2912021 0.580019
-0.2023625 0.2587315 0.5130709
-0.198383 0.2889451 0.529698
-0.1978019 0.2933385 0.5555594
-0.2038837 0.2447045 0.5058143
-0.1898097 0.3249651 0.5656235
-0.1818731 0.2693396 0.5142918
-0.1944094 0.3191596 0.4900083
-0.2019513 0.2618313 0.5421379
-0.1623954 0.3207735 0.4688057
-0.2020493 0.2611013 0.5243016
-0.1914854 0.3264552 0.4815282
-0.188568 0.3377444 0.4907148
-0.1976267 0.2947251 0.4857862
-0.1779314 0.3444523 0.5527058
-0.1667223 0.3020578 0.5444347
-0.1940348 0.321982 0.5183946
-0.1618296 0.3526211 0.5081295
-0.1879448 0.3201415 0.4715111
-0.1988446 0.2815585 0.4731457
-0.1869146 0.3094683 0.4659396
-0.1899964 0.2517934 0.5031737
-0.200974 0.2692795 0.5107614
-0.1947004 0.2416208 0.5117355
-0.1953496 0.311987 0.5291517
-0.1713941 0.3430882 0.4873164
-0.1999939 0.2767125 0.5253978
-0.1553968 0.349409 0.5442974
-0.1877493 0.3466724 0.5248369
-0.160413 0.3157044 0.5297764
-0.1959219 0.2431781 0.4943608
-0.1981303 0.2437508 0.5461794
-0.144806 0.3540762 0.5348977
-0.1881439 0.3459093 0.5142385
-0.1767 0.2805156 0.5188848
-0.1896848 0.3413168 0.5398012
-0.2010436 0.2687672 0.4904621
-0.1854248 0.2616754 0.5002154
-0.1647346 0.306389 0.4996518
0.04039027 0.7129006 0.521369
0.006472468 0.6893459 0.5165199
0.03316925 0.6538172 0.5356206
0.007628053 0.7210389 0.5404084
0.02079774 0.6690993 0.4885039
-0.002667606 0.710093 0.5489352
0.04005949 0.7037454 0.4989772
0.01179349 0.6772341 0.5398334
0.00474529 0.6932394 0.5566057
0.0217409 0.6546286 0.5370723
0.02118579 0.6612634 0.5490869
0.003060475 0.725067 0.53024
0.02740264 0.7113915 0.4921266
0.01177853 0.677304 0.4947479
0.03371307 0.6797212 0.4861423
0.04104997 0.6774103 0.53687
0.009279564 0.6829576 0.5272997
0.02552122 0.7059504 0.5548736
0.03561349 0.6697686 0.4907694
0.02669264 0.6512724 0.51125
-0.004064053 0.713285 0.5260602
0.02691065 0.7166037 0.5462516
0.02896787 0.6509719 0.5225092
0.01438925 0.6713542 0.5153141
0.02842289 0.7246643 0.5282539
-0.003911003 0.7129477 0.5128767
0.003819317 0.6953683 0.5259425
0.00888969 0.7235013 0.507993
0.02918847 0.6733803 0.5559051
-0.006500036 0.7188118 0.538053
0.03606534 0.667676 0.551007
0.02185208 0.7025717 0.4868633
0.01392402 0.6724195 0.5053031
0.02324171 0.7224044 0.5378203
0.03879555 0.6830425 0.5535085
0.01683785 0.7260439 0.5232197
0.01284567 0.7143238 0.5489134
0.01780418 0.6635793 0.5326315
0.008291125 0.6852257 0.500055
0.01239197 0.676075 0.5582873
0.01012067 0.7172313 0.4974732
0.01856966 0.6618592 0.5078231
0.04095799 0.7083322 0.5305771
0.03488225 0.6953581 0.4871823
0.0065815 0.6890748 0.545711
0.002959192 0.6973146 0.5366958
0.03763719 0.662089 0.4982372
0.04092932 0.6642136 0.5389842
0.002700284 0.6979324 0.4998043
0.03454627 0.6916937 0.5570686
0.01014572 0.6810033 0.5094384
0.04076563 0.6827709 0.4942481
0.03673159 0.7190481 0.5285495
0.01868737 0.7204363 0.5018761
0.009935319 0.7043323 0.555651
-0.002738729 0.7102966 0.496275
0.02466305 0.6884926 0.4841543
-0.0396863 0.4064286 0.5505395
-0.003400922 0.5746493 0.5567353
-0.03684104 0.5076546 0.5525788
-0.04610239 0.4842216 0.5437686
-0.0116483 0.5246297 0.5587345
-0.007204726 0.5436198 0.5577742
0.008655414 0.4165851 0.5495105
-0.006206706 0.3701535 0.5284861
-0.01011628 0.6431082 0.4975782
0.01369423 0.6314577 0.499172
-0.01793001 0.6079732 0.4843011
-0.03149664 0.3857463 0.4873914
-0.04836839 0.5585229 0.5026734
0.02067342 0.4358049 0.527519
-0.05045564 0.5606405 0.5362507
-0.05064322 0.3973487 0.5356994
-0.01772837 0.4954624 0.5588708
0.01983203 0.6352566 0.5320089
0.02110551 0.3854213 0.518484
0.01822829 0.5753155 0.5070223
-0.0526174 0.6336405 0.5134652
-0.03215726 0.4113103 0.4877059
-0.005444765 0.4211913 0.5572785
-0.05279721 0.4536797 0.5286044
-0.03305183 0.6430876 0.523432
-0.002633974 0.6077101 0.4868003
-0.03081171 0.370182 0.4926973
0.01719312 0.4822509 0.5385777
0.01952042 0.4246237 0.532653
-0.02030333 0.4031437 0.5585762
0.02117488 0.5106518 0.5212286
-0.004805356 0.5046638 0.4858848
-0.05353728 0.5856991 0.5194713
-0.03759053 0.5274394 0.4909766
-0.04560734 0.486059 0.498316
-0.001351163 0.3791528 0.5556669
-0.05182491 0.5917786 0.5103732
-0.05281384 0.3794394 0.5144062
-0.005083099 0.4902508 0.4857668
-0.006308004 0.4000105 0.4852458
0.01713556 0.3938591 0.5044238
-0.05350177 0.5984412 0.5208356
-0.03781174 0.6217763 0.5520573
-0.04511662 0.6103517 0.5452638
0.0141224 0.3732521 0.5433582
-0.03021772 0.5085804 0.4869197
-0.006568193 0.513207 0.557606
-0.04859642 0.4284293 0.5401955
-0.02694968 0.370164 0.5153982
-0.004609168 0.5519299 0.4859978
0.004525363 0.4427351 0.4903733
0.01897673 0.5597191 0.5086907
0.02112685 0.4932241 0.5193833
0.003941223 0.4324146 0.5529466
-0.05343848 0.4355814 0.5231189
-0.04745342 0.4440954 0.5418252
0.004129246 0.5360759 0.4901977
-0.02870757 0.6281551 0.5567569
-0.02774799 0.4796501 0.4858462
0.003109142 0.4712138 0.4895025
-0.01859331 0.4182678 0.558832
-0.01696845 0.4187776 0.4841253
0.00655891 0.624474 0.5512494
-0.02103882 0.3711687 0.5584245
-0.02667381 0.6420172 0.4857323
0.0210934 0.4283723 0.518056
0.008828998 0.5167984 0.4937699
-0.05337435 0.6396093 0.525727
-0.003879294 0.4630474 0.5568594
-0.05276066 0.426689 0.5141343
-0.02959841 0.6430671 0.549236
-0.05043268 0.4046077 0.5065969
-0.05298891 0.4633828 0.5154922
-0.006914705 0.6098463 0.5577614
0.01974431 0.6049829 0.5111171
-0.01783743 0.565901 0.5589297
0.01120436 0.6131781 0.5469807
0.01421583 0.6197203 0.4999006
-0.0458803 0.6338276 0.544202
0.006298184 0.5676184 0.4915912
-0.01671953 0.4504338 0.484144
-0.03966068 0.455134 0.4923822
-0.002933532 0.5807593 0.4866639
-0.005292371 0.4916658 0.5573001
-0.05309667 0.398325 0.5160677
-0.05175865 0.5057166 0.5101321
-0.04919715 0.4474019 0.5038986
-0.04875253 0.6217524 0.5033327
-0.04860914 0.6087262 0.503095
-0.02743392 0.5894025 0.4858624
-0.05325429 0.5137634 0.5170771
-0.04873128 0.5358565 0.5032306
0.01241016 0.5494182 0.5456592
-0.05109792 0.4898883 0.508398
-0.04150937 0.372137 0.5487823
-0.050254 0.5162023 0.5062202
0.008353859 0.5236221 0.5499004
-0.02972335 0.6430771 0.5366109
-0.05200319 0.5383934 0.5321803
0.02032678 0.5708351 0.5296444
-0.008933604 0.4427751 0.4848288
0.01286314 0.595574 0.4979676
-0.05215757 0.6301554 0.5315713
-0.05336091 0.546688 0.517724
0.006248519 0.4496426 0.5513296
0.01678525 0.5197185 0.5392541
-0.04118399 0.5212989 0.5492098
-0.02357453 0.6162439 0.558184
-0.0004619211 0.3719562 0.4874463
-0.04625863 0.4973596 0.543558
0.02106048 0.4018117 0.5252389
-0.05348188 0.4179577 0.5214503
-0.02510285 0.450331 0.5577893
0.02115187 0.5611932 0.5203911
0.01985587 0.5874875 0.5319088
-0.02165367 0.4405248 0.558374
-0.02099896 0.5388097 0.4843658
-0.03387821 0.4546162 0.5544058
-0.04986884 0.4135843 0.5374514
0.009681329 0.5824741 0.4946309
-0.03581478 0.434004 0.4896471
-0.04668784 0.3714166 0.4998607
-0.01951717 0.5126691 0.5587985
-0.03834797 0.6345628 0.5517291
0.004306391 0.5556611 0.4903251
-0.05224074 0.597281 0.5311775
-0.04947056 0.3872891 0.538325
-0.05232594 0.6162073 0.5117547
0.01880519 0.5099381 0.5345844
-0.0007374287 0.5276093 0.4874645
-0.002093554 0.3949143 0.55601
0.006346062 0.6381512 0.5514107
0.01182725 0.4165247 0.4965351
0.01441571 0.5677484 0.5001421
0.009131148 0.5732242 0.5491338
-0.0286627 0.5238141 0.5566911
-0.04338849 0.6428655 0.4961025
0.01531538 0.4787762 0.5013441
-0.02316028 0.375732 0.4847251
-0.04357594 0.5897103 0.5469946
0.02063122 0.4714507 0.5277931
-0.05170588 0.3738964 0.5332942
-0.02669647 0.3827994 0.5573334
-0.02203585 0.4833788 0.5583425
-0.04170248 0.4444427 0.4941677
-0.05082756 0.547934 0.5354053
-0.04504464 0.5907479 0.4978063
-0.02723094 0.5359408 0.5572503
0.01929711 0.4494649 0.5332546
0.01708819 0.4006847 0.5386791
-0.01438008 0.6324849 0.5588921
-0.01812836 0.4641832 0.5588564
-0.04011941 0.4962263 0.4927391
0.001023784 0.559797 0.5547532
-0.02598941 0.5548107 0.485508
0.01865752 0.6225579 0.5350588
-0.0333415 0.4788223 0.5547637
0.01739416 0.3871463 0.5381629
-0.04618401 0.4120511 0.4990945
0.01088446 0.5483992 0.4957455
0.02012257 0.6337212 0.5128114
0.01796392 0.5884221 0.506439
-0.03859912 0.5127115 0.4916777
0.01447192 0.6053957 0.5002516
-0.03277002 0.4887722 0.4880404
-0.05059779 0.6181225 0.5359772
-0.04964016 0.5783941 0.5047051
-0.04248758 0.5374685 0.5479857
0.00537321 0.6200969 0.4910494
-0.05029963 0.3938121 0.5062416
-0.03498239 0.391871 0.5536593
0.005963713 0.4930794 0.4913208
-0.0325362 0.3701425 0.5422801
0.01219289 0.5636309 0.5458995
-0.01126657 0.4627402 0.4844439
-0.05316301 0.4457713 0.5164917
-0.04826675 0.4656982 0.5024384
0.01923957 0.6097565 0.5335321
0.01357569 0.5996616 0.544405
-0.04580396 0.555914 0.5442479
-0.00319773 0.5175775 0.4865122
-0.03779881 0.6062468 0.4911866
-0.04198037 0.539606 0.4945363
0.01794975 0.4587752 0.506304
-0.05154304 0.5755482 0.5338205
-0.03163927 0.5617761 0.5555788
0.01116912 0.4400265 0.5468801
-0.0224581 0.3926913 0.4845797
0.01461947 0.4309031 0.5426162
0.0205743 0.5330872 0.5281736
-0.05143794 0.6082172 0.5340825
-0.0007700771 0.5933834 0.4875043
-0.002005324 0.532705 0.5560804
-0.04045905 0.5669293 0.549934
0.01514117 0.6337065 0.5419508
-0.03293912 0.7069071 0.4889884
-0.05840001 0.6788066 0.4855559
-0.005195111 0.6960228 0.4849615
-0.06365 0.6658847 0.5156213
-0.01742887 0.7259462 0.518961
-0.01769286 0.7016597 0.4865663
0.01110436 0.6554497 0.4961583
-0.03274361 0.6895979 0.4841917
-0.05128329 0.7221704 0.5383033
-0.05321471 0.7258319 0.5175903
-0.0004208237 0.6688456 0.4873662
-0.02084721 0.722425 0.537787
-0.04318013 0.6601728 0.4951915
-0.02045525 0.6554336 0.4843974
-0.02390429 0.6657888 0.4849829
0.01896396 0.6609545 0.5186043
-0.0483128 0.6796743 0.5580162
-0.06213403 0.6527707 0.5321145
0.009490505 0.6456882 0.4943425
-0.0007493645 0.6533338 0.4874841
-0.0001305789 0.7043503 0.5197598
-0.01008001 0.6576419 0.4846734
-0.006599471 0.6786422 0.4847734
-0.05437395 0.6560869 0.5031636
-0.05183728 0.6465411 0.5329509
-0.05400689 0.7145455 0.5485929
-0.04889005 0.6730838 0.4875686
-0.008785263 0.6889593 0.5591174
-0.03947771 0.6522871 0.5508996
-0.02291203 0.7099275 0.5523839
-0.04458514 0.7110345 0.4917012
-0.008444145 0.6559486 0.5583019
0.004944637 0.6773812 0.485922
-0.05416143 0.7253079 0.5292215
-0.03634108 0.7206635 0.5408552
-0.03828668 0.6710669 0.4884439
-0.03328902 0.6493586 0.4882758
-0.02653908 0.6653712 0.557578
-0.02334607 0.6777564 0.484617
-0.03401597 0.7170052 0.4972879
-0.04381637 0.6652617 0.5508822
-0.02051137 0.6899067 0.4842461
0.001385808 0.674302 0.5566514
-0.01315666 0.6689376 0.5590041
-0.03586122 0.7255951 0.5158132
0.00784561 0.6533633 0.5502836
-0.03990668 0.7140176 0.5490581
-0.01128456 0.7155146 0.4955963
-0.02345983 0.7180671 0.4985827
-0.05429155 0.6509363 0.5211885
-0.05533703 0.6599719 0.5458121
-0.02101769 0.6811524 0.5590272
-0.05488847 0.3456534 0.5517602
-0.01424825 0.2904488 0.4784239
-0.04143779 0.2405872 0.5242835
-0.01543763 0.3127536 0.5668239
-0.05799264 0.32113 0.469085
0.006543919 0.3226814 0.5532274
-0.03499855 0.2461144 0.5401788
-0.04908627 0.3347227 0.5642938
0.01251039 0.3494592 0.5488093
0.0222632 0.3353309 0.516217
0.001534417 0.2778912 0.5363473
0.002508834 0.2840064 0.5005824
-0.04885665 0.3512598 0.4946533
-0.0579564 0.2382454 0.5194935
-0.002405956 0.2723283 0.5055364
-0.002921209 0.2684558 0.5287283
-0.03233924 0.2437936 0.5200901
-0.01248756 0.2580632 0.5123504
-0.03724372 0.3126834 0.5737205
-0.02941252 0.3248233 0.4744739
-0.04599036 0.3247792 0.4720098
-0.01628645 0.3679867 0.4825866
-0.05384304 0.2601312 0.4761292
-0.05497697 0.3540447 0.5357264
0.01025093 0.3111245 0.5463098
-0.0604059 0.3172451 0.5753421
-0.04320417 0.2669408 0.4734226
-0.002961367 0.3050283 0.5589619
0.01793234 0.3509113 0.5011256
0.01528446 0.3279707 0.4992917
-0.06031296 0.2658719 0.5707099
-0.04173644 0.3595703 0.551456
0.02267259 0.3612975 0.5276712
0.02294298 0.3511236 0.5148096
0.0008126348 0.3036657 0.4874227
-0.03016111 0.3405185 0.4800324
-0.03476488 0.2779682 0.4709677
-0.05928513 0.3303216 0.4744853
0.004827127 0.2895452 0.5429417
-0.05527708 0.3075038 0.4645647
-0.04429394 0.2580898 0.4798218
-0.02064978 0.2614114 0.4913324
0.01935335 0.3162562 0.5205101
-0.04129907 0.2899066 0.4660317
-0.01222852 0.3471516 0.4812835
-0.04300198 0.3014216 0.5772135
-0.06498107 0.2420024 0.5007845
-0.05502409 0.3590292 0.5140197
-0.01488671 0.265658 0.549734
-0.03224933 0.3261165 0.5682554
-0.02125011 0.2556962 0.5438298
-0.05167411 0.3578888 0.5035601
-0.05755676 0.2963979 0.5792895
0.02212141 0.333551 0.5261883
-0.03676476 0.2440326 0.506529
-0.01297832 0.3003601 0.4773874
0.00337784 0.3113696 0.5545337
-0.06947452 0.3316109 0.475439
0.0165184 0.360692 0.4994102
0.01325965 0.2971095 0.5256048
0.0044837 0.3683135 0.55412
-0.0263114 0.2807982 0.5687543
-0.008747846 0.2607113 0.5212916
-0.05558208 0.2887685 0.4638938
-0.06719575 0.2740973 0.4676994
-0.04155722 0.3123016 0.4677927
-0.05479813 0.3628439 0.5280284
-0.01569061 0.279883 0.5614179
-0.05605756 0.2583569 0.5651654
-0.02168031 0.2786806 0.4775167
-0.006435141 0.2737325 0.495762
-0.01103402 0.3701305 0.5574678
-0.02861997 0.2685637 0.4786827
-0.002287045 0.3610409 0.5582483
-0.0679373 0.2391373 0.5111968
-0.06477309 0.2400378 0.5359653
0.008790821 0.3573281 0.4907498
0.0161383 0.3049448 0.5190661
-0.02205724 0.3583397 0.4822871
0.0175394 0.3405078 0.5417399
-0.02395358 0.3039965 0.4716899
-0.1271041 0.6733041 0.5543087
-0.1435055 0.7044623 0.5067798
-0.09298518 0.6661484 0.4878326
-0.0941917 0.6588965 0.5079599
-0.07685611 0.7292103 0.5027376
-0.1376197 0.7055644 0.5459753
-0.1370541 0.7359306 0.508813
-0.1015016 0.7199073 0.4850003
-0.1230603 0.6716266 0.4904372
-0.1295803 0.7302398 0.4903452
-0.07697862 0.7321056 0.5406297
-0.06800869 0.7197254 0.5011076
-0.07741475 0.6689131 0.4897333
-0.07361752 0.696601 0.5582353
-0.07659201 0.6603382 0.5462113
-0.1465573 0.7092754 0.5207497
-0.07562906 0.7102643 0.551986
-0.1399766 0.6802551 0.5003854
-0.1117062 0.6666375 0.4862975
-0.08455974 0.7023739 0.4869766
-0.1140941 0.694027 0.4845435
-0.1063355 0.7269318 0.559055
-0.1448726 0.6857386 0.5103043
-0.1164678 0.6686568 0.5338793
-0.08562094 0.7358987 0.5289045
-0.1302417 0.7172179 0.4908138
-0.1355208 0.7329203 0.5481482
-0.1014693 0.6867033 0.5590935
-0.1182635 0.727998 0.48534
-0.1148743 0.7046819 0.4846559
-0.07645566 0.7359099 0.5218351
-0.09779607 0.7359523 0.4952447
-0.1445035 0.704146 0.5341109
-0.1199438 0.6702232 0.5107124
-0.1357477 0.6810302 0.5480009
-0.08150989 0.6532691 0.5377219
-0.0821838 0.6536322 0.4959433
-0.1043629 0.663328 0.5355523
-0.1465015 0.6940838 0.5189096
-0.1098876 0.665741 0.5467155
-0.1390716 0.6786239 0.520431
-0.1393264 0.730454 0.4995275
-0.1453553 0.6881281 0.5312053
-0.1265025 0.7052714 0.5548587
-0.1212294 0.7358679 0.5482321
-0.1010526 0.7328511 0.4852943
-0.1256768 0.7018883 0.4881032
-0.08522106 0.7056696 0.5547975
-0.1065932 0.6643497 0.5101514
-0.124086 0.6720197 0.5270668
-0.07641195 0.7118431 0.4925567
-0.09270687 0.7358782 0.5417737
-0.1183743 0.7176759 0.485368
-0.09827835 0.6606788 0.5179228
-0.1457883 0.7286974 0.5138094
-0.09755655 0.7201899 0.5573232
-0.1130382 0.735854 0.5570071
-0.08252978 0.7249932 0.4954385
-0.1245742 0.6863982 0.5558244
-0.08040708 0.6528203 0.5148509
-0.06638048 0.7242693 0.5109298
-0.07234828 0.6610869 0.4961447
-0.1325871 0.6757905 0.5080077
-0.1058781 0.6640566 0.4966116
-0.114984 0.7359203 0.5153779
-0.07015701 0.6784028 0.5577247
-0.1464628 0.7318128 0.523959
-0.08525897 0.6890854 0.4841769
-0.08021811 0.688587 0.5591477
-0.06894621 0.6768301 0.4860304
-0.1414057 0.6876623 0.5406403
-0.1278066 0.7261322 0.5541959
-0.1184297 0.6984968 0.5579717
-0.1319385 0.6927401 0.5513665
-0.1281466 0.673779 0.5442215
-0.07602377 0.635837 0.5061537
-0.1219354 0.6401888 0.5555947
-0.08900665 0.6312278 0.5105423
-0.1075248 0.6311802 0.5403692
-0.112818 0.667069 0.5224721
-0.07276703 0.6402032 0.5306355
-0.1306158 0.6330954 0.5029151
-0.09663381 0.6311943 0.5315337
-0.0860809 0.6440713 0.4920587
-0.1447268 0.665816 0.5097924
-0.1212769 0.6453925 0.486129
-0.134867 0.6580511 0.548874
-0.1342602 0.6478598 0.5494272
-0.1206616 0.6312097 0.5218759
-0.1205635 0.6312389 0.5036051
-0.1462123 0.6698779 0.5272335
-0.07879401 0.6325874 0.5360486
-0.1456437 0.6757507 0.5130463
-0.1168738 0.6688042 0.5534604
-0.09428445 0.6379717 0.5550545
-0.1401471 0.6659408 0.5426823
-0.1370377 0.6341279 0.5120015
-0.1095321 0.6396591 0.4849469
-0.08247744 0.6411583 0.5479206
-0.1387545 0.6403205 0.5412129
-0.1445378 0.6543252 0.5092728
-0.07189974 0.638124 0.5181504
-0.1001859 0.6454812 0.4851805
-0.1259007 0.6545776 0.4880875
-0.1354744 0.672699 0.4932077
-0.08473576 0.650776 0.5516492
-0.1244889 0.6621717 0.5557967
-0.1308481 0.6376874 0.5481726
-0.1042116 0.632062 0.4923656
-0.1125338 0.6604764 0.5589398
-0.1391857 0.6347887 0.5254974
-0.08904264 0.6557528 0.4884781
-0.15665 0.7550532 0.5122902
-0.1350657 0.7767496 0.48489
-0.135412 0.745124 0.54843
-0.1509178 0.751179 0.5022423
-0.07366307 0.7438052 0.5337328
-0.07961908 0.7681591 0.4919188
-0.07832249 0.7651677 0.5200242
-0.08422752 0.7785893 0.5192891
-0.1005586 0.815698 0.5240174
-0.1009651 0.7755728 0.5589768
-0.1055957 0.7375192 0.5471773
-0.1027 0.7436313 0.5586153
-0.1106491 0.775168 0.4843341
-0.09033364 0.7924951 0.5016395
-0.1074549 0.8200631 0.5161862
-0.1015939 0.7516624 0.4850339
-0.140221 0.8204611 0.5220973
-0.15514 0.7976143 0.5562301
-0.09366801 0.8000219 0.5337191
-0.1265979 0.7580191 0.5547837
-0.1349541 0.7454467 0.4946088
-0.0755666 0.7589334 0.5016512
-0.09516279 0.7641631 0.5566777
-0.09267382 0.7977818 0.5216055
-0.1420037 0.7839274 0.5592886
-0.08087233 0.7709456 0.5307513
-0.1017893 0.763336 0.4850173
-0.08612353 0.7829185 0.5066614
-0.102221 0.7375347 0.5374954
-0.1451474 0.7387863 0.5319275
-0.1002366 0.8090672 0.548712
-0.09222682 0.746106 0.5551523
-0.151419 0.8007497 0.4889427
-0.1236475 0.7612738 0.4872773
-0.152292 0.8122348 0.5450644
-0.069782 0.7456993 0.524707
-0.1343837 0.8145826 0.5016117
-0.0734535 0.7541102 0.5147281
-0.1234921 0.8082847 0.5494088
-0.09072783 0.7450204 0.4891564
-0.1031372 0.8161358 0.5392982
-0.1028879 0.799918 0.4883798
-0.13752 0.8190175 0.511313
-0.08962756 0.7908058 0.5547082
-0.08239912 0.7743822 0.5517176
-0.1225986 0.7975875 0.5563244
-0.1464106 0.7459918 0.5144706
-0.08366881 0.7773618 0.4926838
-0.1500412 0.7586399 0.5501696
-0.1424498 0.7713371 0.5573919
-0.07818049 0.7648152 0.5386403
-0.09505359 0.8032214 0.5021081
-0.1417057 0.8117068 0.5458478
-0.08426588 0.7546723 0.4938195
-0.1423663 0.789389 0.4848407
-0.149656 0.8202582 0.5262903
-0.121467 0.8181599 0.5348792
-0.1230075 0.7375595 0.5219543
-0.0885878 0.7563644 0.55291
-0.0918317 0.7805468 0.5591838
-0.1350539 0.7656928 0.4887312
-0.06687065 0.7591178 0.4930137
-0.05829033 0.76328 0.5526386
-0.0839753 0.8171664 0.5373565
-0.05254115 0.7993553 0.5417289
-0.06587929 0.7498605 0.5393293
-0.06642117 0.7873778 0.5590441
-0.05481185 0.7776064 0.5544602
-0.08801119 0.8204936 0.5238695
-0.08335441 0.7989879 0.5557185
-0.09040304 0.7925877 0.5424446
-0.05569302 0.7498345 0.5358048
-0.06024638 0.7899249 0.4861604
-0.07522818 0.8191113 0.5115222
-0.07382454 0.7757831 0.485051
-0.0775756 0.8201477 0.5272548
-0.05426054 0.8088093 0.5343851
-0.06250078 0.8188835 0.5201412
-0.05195001 0.7758351 0.5227523
-0.08694148 0.8103275 0.5474936
-0.0685936 0.7970342 0.4870091
-0.0670561 0.770287 0.5570481
-0.05248231 0.7515292 0.5150536
-0.08914343 0.7897668 0.5161347
-0.05432821 0.7677256 0.4921018
-0.09435138 0.8184323 0.5342374
-0.08437663 0.7881514 0.4834046
-0.06992757 0.8123433 0.5452181
-0.06486768 0.7471895 0.5100932
-0.06020684 0.8070709 0.5477347
-0.05693647 0.7461746 0.5225524
-0.06133215 0.8139947 0.5393677
-0.06273797 0.7735098 0.4855915
-0.18515 0.7825264 0.5271942
-0.1772667 0.7600396 0.5513155
-0.19115 0.7699613 0.5002702
-0.1864726 0.7988212 0.5378945
-0.1735407 0.745643 0.5231494
-0.18415 0.818029 0.5150684
-0.161632 0.7574809 0.5491595
