VERSION .7
FIELDS x y z
SIZE 4 4 4
TYPE F F F
COUNT 1 1 1
WIDTH 1457
HEIGHT 1
VIEWPOINT 0 0 0 1 0 0 0
POINTS 1457
DATA ascii
0.02006776 0.1234837 -0.03260961
-0.0701905 0.04253834 -0.01240676
0.04616214 0.06711922 0.03485538
-0.05685596 0.09535973 0.05787055
-0.02062803 0.1098545 -0.05712266
-0.06561579 0.06785184 0.0487892
0.03165352 0.04243587 -0.04852274
-0.04817012 0.1550595 -0.02315
-0.04619567 0.05982886 -0.04230265
-0.06970696 0.04686199 -0.02487108
-0.05937066 0.1396023 -0.04150898
0.01343556 0.07803607 0.05623971
-0.0253063 0.04415205 0.05211335
-0.01978361 0.1395683 -0.05441986
0.03585113 0.1161803 0.02855172
0.05587479 0.04192376 0.01504322
-0.006115361 0.04357278 -0.05765273
0.01997135 0.0817015 -0.05434247
-0.0660548 0.0925035 -0.05760142
0.04222099 0.1132327 -0.01913567
-0.03359548 0.1483153 0.007645715
0.03439692 0.06103555 -0.04656656
-0.06081445 0.1293265 -0.04953181
0.02851968 0.1195727 -0.01189162
-0.04603939 0.1424469 -0.0389166
-0.01775536 0.06225244 -0.05514532
-0.006271575 0.1356717 0.03196137
0.03728426 0.08084196 0.04433841
-0.02222605 0.1187865 0.05554485
-0.06641716 0.05783866 0.04065384
0.02765963 0.07473518 -0.05086496
-0.0168102 0.1405483 -0.01940212
-0.06258334 0.1482419 -0.03084442
-0.02726525 0.05987577 -0.05093579
-0.05924756 0.1412057 0.03988225
-0.06955196 0.06532254 -0.04696045
-0.004777517 0.05650206 -0.0577933
0.01417212 0.1262118 -0.04549179
-0.01418004 0.1393312 0.01079823
0.004950945 0.04203425 -0.05767768
0.05418414 0.05758808 0.02039216
0.05195478 0.06921069 -0.0256421
-0.02591713 0.0978146 -0.05794305
0.03178253 0.1180629 -0.02271628
0.05785725 0.04536704 -0.003084816
0.05334418 0.1038609 0.0226207
-0.02549872 0.0721109 0.05336751
0.00894207 0.1286319 0.03111255
-0.04111607 0.09409176 -0.05777175
0.05782011 0.06714274 -0.003403105
-0.0529509 0.106099 0.05756355
-0.02209637 0.1429943 -0.009693384
0.05488883 0.1073709 0.0117978
0.003799129 0.1310117 0.0115982
0.0332679 0.05284481 0.04732733
0.02363399 0.1218335 0.03971557
-0.003312362 0.1343024 -0.003366958
0.0112443 0.06909389 -0.05679715
-0.06907077 0.04652348 0.02410235
0.006094061 0.1016742 -0.05754033
-0.002630533 0.0824432 0.05796045
0.009048363 0.04712532 0.05727433
-0.03267487 0.1100608 -0.05692166
-0.03658353 0.05107957 0.04473219
-0.04548408 0.1538166 0.004757207
0.04171797 0.0402667 -0.04018614
0.0006616399 0.0890824 -0.05799473
-0.0548261 0.04276472 -0.01904102
0.04103893 0.04854544 0.04080836
0.005661154 0.1301501 -0.0324858
-0.06136682 0.05618522 -0.03894475
0.04850382 0.07974418 -0.03164549
-0.05219149 0.1478894 0.03125079
0.01353289 0.1234991 -0.05629284
-0.04932828 0.04839492 -0.03116099
0.03723331 0.1090659 -0.04436613
-0.06523682 0.1566564 0.006990481
-0.01809965 0.1411449 -0.04093328
-0.00793645 0.1364421 0.04956097
0.05603318 0.08834152 0.0142832
0.0569342 0.05112588 0.01083362
-0.02945068 0.04020188 -0.04991855
0.05465116 0.1054752 -0.01911329
-0.04966943 0.1486503 -0.03179032
-0.006331112 0.1276013 -0.05758605
0.03818084 0.07080248 -0.04355939
0.01383748 0.03605094 0.05612357
0.04475382 0.1077863 0.03682836
0.01920049 0.123885 -0.01881961
-0.03703326 0.1487324 0.04439444
-0.001594841 0.1335077 -0.02501708
-0.005102583 0.1351308 0.0177148
-0.05042759 0.1339462 -0.04619502
-0.06146715 0.04181451 0.008600999
-0.03934627 0.1016916 0.0579261
0.04525564 0.1109536 -0.03612227
-0.04682998 0.03886098 -0.03397067
-0.03750112 0.14997 -0.0439887
0.02251581 0.05954798 0.05333906
0.05215304 0.0444086 -0.02522924
0.04635295 0.04128629 0.03468935
0.05092598 0.0908744 0.02741949
0.0426788 0.09332015 -0.0391841
0.01136237 0.1275119 -0.009613588
0.02774578 0.1164947 -0.0508187
0.02770283 0.08473493 0.05072983
0.008907188 0.1230396 0.05720369
-0.004699095 0.09692051 0.05791442
-0.06086189 0.1514103 0.02513942
-0.03707909 0.08555174 0.05632572
-0.06210758 0.1156737 0.05557221
0.05256191 0.08051495 0.02444745
-0.05727977 0.04868311 0.02829168
0.0425714 0.08234465 -0.03932937
0.0348635 0.1146057 0.04628635
-0.0352355 0.1150947 0.05569494
0.04573274 0.09710916 0.03546308
-0.03626511 0.1495507 -0.03393034
0.05780177 0.07789367 -0.002108037
-0.02105565 0.1425128 0.02373777
-0.0393225 0.1251335 0.05169978
0.001764738 0.1319531 0.04587765
0.03147187 0.1373019 -0.04867676
-0.0245294 0.1441202 -0.02797997
0.006407972 0.152937 -0.05598681
-0.02879189 0.164534 0.01930671
-0.008790549 0.1429797 -0.05731443
0.05797596 0.1231019 0.001324026
0.02239985 0.1544651 -0.04758384
0.0009900171 0.1606131 -0.03849973
-0.009047912 0.1619346 -0.001014628
-0.04247006 0.1662559 0.02942732
0.02381116 0.1284771 -0.05285851
0.03841231 0.1382679 0.04343716
0.04384873 0.1428547 -0.03706472
0.01660531 0.1585573 0.01868609
-0.007918855 0.161786 0.01588662
0.04507684 0.1541493 -0.006379042
0.01578523 0.1586653 -0.01243564
0.03779891 0.153205 0.03370844
0.004483847 0.1601531 -0.006534487
0.02532842 0.1210494 0.02927222
0.02014851 0.1234463 0.05165078
0.04725772 0.1109021 -0.01055851
-0.04362819 0.1664872 0.004812732
0.00948557 0.1594947 -0.02460109
0.03949154 0.1555198 0.01262673
-0.01387063 0.1625696 0.04155747
0.05517025 0.1329041 -0.0178145
-0.03333737 0.1481959 -0.01005714
0.01931358 0.1238327 0.02017845
0.0557995 0.1338825 0.01579526
0.01367373 0.1589433 0.006070651
0.05063168 0.1290348 -0.02826482
0.00610859 0.1578286 0.05155334
-0.01706961 0.1629907 0.02428614
0.03107841 0.1551154 -0.03804568
-0.0564051 0.15887 -0.001645453
0.001934505 0.1604888 0.01903022
-0.009935558 0.1606746 -0.05092525
0.03749249 0.1268381 -0.04421268
-0.01895872 0.1632394 -0.002188854
0.04965844 0.1231166 0.02992655
0.03533152 0.156092 -0.004629496
0.01498502 0.1472705 0.05575531
-0.02064099 0.1634609 -0.0173097
-0.03007732 0.1647032 -0.0008725375
0.05683272 0.1241331 0.01152006
-0.03770155 0.1648828 -0.03767873
-0.006221104 0.1518574 0.05737466
-0.01765957 0.1409413 0.04388622
0.0304572 0.1509316 0.04538118
0.02669303 0.1572292 -0.01171508
0.04563569 0.1526769 -0.01851732
-0.04551169 0.1556766 -0.03830886
0.05218614 0.1407023 0.02422775
0.007415683 0.1597672 0.03190099
-0.004024662 0.1374536 0.05932808
-0.0516688 0.1671342 -0.01578152
-0.007019569 0.1616676 -0.03128123
0.04660513 0.1323434 0.03445796
0.03330554 0.1247319 0.04744576
0.05480132 0.1151345 0.01892158
-0.02734738 0.1615053 -0.04785393
0.02840091 0.1402873 0.05054729
-0.02923011 0.1521966 0.05005894
-0.05446022 0.1620865 0.02135132
0.01186173 0.1591818 -0.03492995
-0.001866466 0.1609892 -0.01717981
0.03079541 0.1566892 0.00617196
0.03382023 0.1468507 -0.04550856
-0.04395653 0.1665304 -0.007175632
0.05721135 0.1221662 -0.009452049
0.05584858 0.1427624 -0.009743135
0.03580042 0.1560114 -0.02142571
0.02366125 0.1455099 -0.05264618
-0.02783684 0.1644082 0.03210589
0.04307762 0.1128363 0.01369198
0.0242135 0.1575557 -0.02834737
-0.0240462 0.1637986 0.04338442
-0.02905953 0.1645692 -0.0228397
-0.02383157 0.1437973 0.01181861
0.005102115 0.1483623 0.05764322
0.01487502 0.1258865 0.0431637
-0.004332196 0.1542492 -0.05662579
0.04365516 0.1208601 -0.03813453
0.05124927 0.1504446 0.003285736
-0.007971423 0.1364583 -0.04893795
0.04621052 0.1486099 -0.02847309
-0.03863898 0.1506491 0.02864319
0.04250322 0.1537211 0.02244484
0.05160195 0.1487214 0.0133355
0.009832274 0.1590973 -0.04632103
0.0132464 0.1357114 -0.05643524
0.02553048 0.1573823 0.03376341
-0.01787081 0.1597995 0.05193492
-0.01203945 0.1623285 -0.04028109
-0.01574378 0.1447054 0.05579804
-0.01371519 0.1391161 -0.005444389
-0.1009005 0.5675956 0.03804221
-0.1932526 0.469426 -0.01924426
-0.1885765 0.4828303 -0.02175061
-0.0706497 0.5595832 0.03560989
-0.08182533 0.5638499 0.0417593
-0.1726186 0.4536436 -0.01944287
-0.1336126 0.547911 -0.05320824
-0.1836886 0.4934403 0.03706338
-0.1753563 0.4919333 0.0478527
-0.1506405 0.5648068 -0.02970214
-0.1254199 0.5192257 -0.05823258
-0.08945087 0.4655705 0.03434367
-0.193155 0.466056 0.009845349
-0.148709 0.5066596 0.0567891
-0.1586393 0.5095453 0.05609053
-0.1536692 0.4801859 0.05483756
-0.1793485 0.5028092 0.0239693
-0.1219785 0.5530616 0.04974908
-0.1583763 0.5063305 -0.05611848
-0.08962421 0.4536732 0.01775116
-0.1168327 0.4901568 -0.0549642
-0.08197296 0.4584565 -0.0216637
-0.1082391 0.4714229 0.05062163
-0.1822694 0.4731243 0.03418215
-0.1540638 0.4565777 -0.05526651
-0.1449414 0.5771339 -0.01606479
-0.1384038 0.5820473 -0.001133467
-0.1011827 0.5682197 -0.03794357
-0.1698341 0.5233693 0.02226442
-0.1568585 0.4536285 -0.03838531
-0.1836477 0.4753516 -0.03421219
-0.1024342 0.5217687 0.05759254
-0.07791805 0.5460367 -0.05394776
-0.104871 0.5806144 -0.0134935
-0.07926956 0.4686894 -0.01772087
-0.1736306 0.5151033 -0.05486917
-0.08597444 0.5350286 -0.05720741
-0.1623805 0.4769861 -0.05165927
-0.1890485 0.4818311 0.004455733
-0.1730726 0.5163866 0.04238643
-0.1183711 0.4536616 0.003174577
-0.1691722 0.4912921 -0.04972219
-0.08447181 0.5312659 0.05713777
-0.09750727 0.4729309 -0.04347724
-0.1898801 0.4646114 0.02061521
-0.1008209 0.5185981 -0.05803157
-0.1688959 0.5253782 -0.0009735788
-0.09356627 0.5606449 0.04465641
-0.136204 0.5556105 0.04827973
-0.1667366 0.5300292 -0.02052958
-0.1367152 0.4565991 0.05769358
-0.1931655 0.4585484 -0.008573399
-0.1547849 0.5558912 0.02143673
-0.1180811 0.4701259 0.05488866
-0.07959042 0.5051852 0.05442962
-0.1123568 0.5136681 0.05675225
-0.1821137 0.4967735 -0.05111364
-0.1637147 0.5365826 0.008194175
-0.1295915 0.5444782 0.0538456
-0.17883 0.5039071 -0.004326829
-0.1118419 0.5601664 0.04496575
-0.1225224 0.4536887 0.03724029
-0.1475001 0.5716369 0.02488409
-0.1611636 0.4564664 0.0517905
-0.09303147 0.5616297 -0.04455626
-0.1883233 0.4547993 -0.02475719
-0.120803 0.5739124 -0.0300168
-0.07863268 0.5223311 0.05762089
-0.1314172 0.5648876 0.04073074
-0.159139 0.5240402 -0.05832835
-0.1687633 0.5256748 0.0117111
-0.1305843 0.5796622 -0.01685751
-0.1288163 0.5666256 -0.03977088
-0.1822181 0.4965971 0.01049701
-0.1570689 0.550905 -0.04179654
-0.1508857 0.5643288 0.03531879
-0.188395 0.4832356 -0.005551429
-0.1805238 0.500221 -0.03672117
-0.07960789 0.4656162 0.01362314
-0.1046214 0.4844756 0.04842503
-0.1719993 0.5186648 -0.009303797
-0.1219523 0.5753757 0.02661084
-0.1222287 0.4549681 0.05600505
-0.1748922 0.5123937 -0.03390593
-0.1829293 0.4950393 -0.01566862
-0.08144546 0.5541837 0.04922003
-0.1725021 0.4665502 -0.04515954
-0.07878388 0.5718685 -0.03329835
-0.1454484 0.5617326 0.04369671
-0.1772767 0.5072497 -0.0224148
-0.07872789 0.5189859 -0.05810355
-0.1266119 0.5593669 -0.04635678
-0.1631792 0.5243744 0.05765687
-0.09668721 0.4650332 0.04243761
-0.08205704 0.5622073 -0.04401777
-0.1909901 0.4776478 0.02011956
-0.1463613 0.5622904 -0.04389091
-0.1540151 0.5298404 0.05735065
-0.1060744 0.4882175 -0.05031543
-0.1581033 0.5487409 0.04784127
-0.08740383 0.5804111 0.01327738
-0.08050181 0.5795994 -0.0169922
-0.167495 0.5021716 -0.05399038
-0.07495346 0.4663952 0.001424221
-0.1585339 0.5477573 -0.01870259
-0.1182724 0.5022283 -0.05622095
-0.1622738 0.5396621 -0.03502771
-0.1428203 0.4801441 0.05725024
-0.1021949 0.5480832 0.0524537
-0.08085583 0.4980683 -0.05206811
-0.1115669 0.4770949 -0.0528744
-0.07545184 0.5716711 0.03271201
-0.09400231 0.5062016 -0.05542601
-0.1768727 0.4540328 0.04058724
-0.1675129 0.5283345 -0.04194716
-0.08372183 0.4594361 0.02511272
-0.149099 0.5284933 -0.05805524
-0.1526006 0.5605952 0.0006696068
-0.1711544 0.5204766 -0.02728591
-0.07777338 0.4867052 -0.04453668
-0.1605162 0.5435065 0.02299878
-0.1521234 0.5536711 -0.05025629
-0.1773868 0.5070649 0.04446339
-0.1682978 0.4698148 0.0476749
-0.1144318 0.4658248 -0.05415581
-0.1625216 0.5391454 -0.01128497
-0.09304284 0.5265852 -0.05821028
-0.0911884 0.5137857 0.05669523
-0.1457329 0.5054034 -0.05763062
-0.1392089 0.5730504 -0.03133085
-0.08535933 0.5739022 0.02919749
-0.1526556 0.4761109 -0.05575389
-0.1840695 0.4612483 -0.03245538
-0.1390086 0.5806693 0.01206303
-0.0866485 0.5820086 3.820402E-06
-0.1613145 0.5417951 0.04016113
-0.1875819 0.4849634 -0.04244183
-0.1580517 0.5443517 -0.05458594
-0.1487873 0.4954368 0.05617424
-0.09859786 0.5763394 0.02490911
-0.1357035 0.4649236 -0.0582896
-0.1673239 0.5288048 0.03584421
-0.1488824 0.5686135 -0.02058808
-0.1833712 0.4830612 0.04027707
-0.09266767 0.5759745 -0.0263156
-0.0888748 0.4873422 0.04419216
-0.08872874 0.5461141 0.05321812
-0.1678142 0.5047459 0.05425545
-0.07589853 0.5451107 0.05351861
-0.1663183 0.5309042 -0.05689001
-0.1737019 0.5150044 0.01456074
-0.08813752 0.4634691 -0.0332484
-0.1447315 0.491028 -0.05752369
-0.1742193 0.5139002 0.03203693
-0.1020502 0.5027254 0.05347713
-0.1634303 0.454873 -0.05117758
-0.110057 0.5394627 0.05548866
-0.1006963 0.4973963 -0.05174809
-0.1459771 0.57491 0.0017527
-0.1561196 0.5530144 0.03103182
-0.1244135 0.5814635 -0.008866678
-0.128435 0.4660873 0.05722623
-0.1866667 0.4869934 0.02333727
-0.07919402 0.4734553 0.02749019
-0.07689838 0.5789804 0.01852859
-0.1590202 0.4655306 -0.05344485
-0.1190179 0.5818324 0.004423736
-0.1563234 0.07074217 -0.03340932
-0.2009952 0.1261877 -0.02499049
-0.1960429 0.08855961 -0.03956816
-0.196099 0.08903753 0.02561592
-0.2004951 0.122428 0.02439712
-0.1813901 0.06056179 0.04216171
-0.2010239 0.1264185 -0.008931948
-0.1889127 0.08009423 0.05186132
-0.1688372 0.06521158 0.0469701
-0.1533283 0.0631689 0.04737341
-0.1837308 0.04930898 -0.02312765
-0.1937245 0.0709866 0.006685379
-0.1870711 0.09171806 0.05684451
-0.1990469 0.111374 -0.04310799
-0.2031145 0.1422967 -0.01088339
-0.1460011 0.04847513 0.01724
-0.1822357 0.1267323 -0.04427043
-0.1691949 0.09856863 -0.02086405
-0.196054 0.1562303 0.01649043
-0.1610544 0.08102894 0.04517991
-0.1467562 0.04972717 -0.03304408
-0.1926104 0.06270272 0.02037447
-0.1800814 0.1221107 -0.00147358
-0.1568249 0.0422545 0.0110857
-0.1914344 0.138623 -0.04450473
-0.155717 0.06945832 -0.0001076335
-0.2038237 0.1476963 0.005112509
-0.1732942 0.1074153 -0.03629357
-0.2014749 0.1298217 -0.03746352
-0.2015073 0.1301068 0.012
-0.198264 0.1054448 -0.02139007
-0.1672761 0.09440751 -0.03908116
-0.193045 0.1465277 0.03590128
-0.1918995 0.1476481 -0.004606865
-0.1784422 0.1185987 0.03691481
-0.203241 0.1432784 0.01538841
-0.2034794 0.1521423 -0.01495142
-0.1519645 0.061321 -0.03498052
-0.1638761 0.04410562 0.01817709
-0.1873133 0.137722 -0.02332044
-0.1693927 0.04542157 -0.02180946
-0.197708 0.1012423 0.004939599
-0.1916837 0.05722441 0.01202288
-0.1934101 0.1508951 -0.02655959
-0.1727631 0.106301 0.005854811
-0.1811081 0.1130488 -0.05630443
-0.1495149 0.04829638 0.03084543
-0.1897537 0.06924701 0.04334282
-0.1635366 0.05304419 0.03511615
-0.1861541 0.1352615 0.03278638
-0.1738064 0.1085131 -0.04769711
-0.1694682 0.08421335 0.05602061
-0.1922459 0.05974461 -0.007296598
-0.1620572 0.08316018 0.000126002
-0.1738208 0.1057417 0.05906118
-0.1959756 0.1564611 0.0007278434
-0.1938809 0.0721494 -0.02429717
-0.1749284 0.04341917 0.015439
-0.1425341 0.04097419 0.006492303
-0.1994264 0.1142788 -0.0151142
-0.1890966 0.1416136 0.02406968
-0.1582366 0.07486115 -0.05300061
-0.1778818 0.1174014 0.0541809
-0.1532895 0.06422362 0.01410856
-0.1672462 0.09437693 0.003722928
-0.1685205 0.09708679 -0.05142082
-0.2014547 0.1376933 0.03750293
-0.202574 0.1381832 -0.02041207
-0.153853 0.06541944 -0.01347305
-0.1657179 0.09109756 0.03325298
-0.1987156 0.1088884 -0.004577897
-0.180166 0.06514312 -0.04661623
-0.1862563 0.1354474 -0.0113259
-0.196209 0.08986466 0.01493013
-0.1504899 0.04531762 -0.0214925
-0.1973331 0.09841654 0.03242977
-0.1600486 0.0492503 -0.02950279
-0.1895666 0.1237496 0.0525091
-0.1648784 0.08927234 0.01940624
-0.1956728 0.08576623 -0.01692309
-0.1991032 0.1118704 0.0427532
-0.1613 0.04170951 -0.007691324
-0.1900977 0.0521598 0.00206386
-0.1700084 0.1003555 0.01545409
-0.1469273 0.05045392 -0.01148322
-0.1927563 0.06361172 -0.01892717
-0.1676271 0.0478869 0.02704267
-0.200872 0.1476227 0.02924795
-0.1474543 0.05160442 0.003018502
-0.1822016 0.04384533 0.00115407
-0.1852001 0.1331886 0.01871357
-0.1636859 0.041223 0.002167369
-0.1883637 0.1101161 0.05682093
-0.1949428 0.08022919 -0.007338042
-0.1735723 0.05079112 -0.03195537
-0.1935579 0.0697379 0.02803565
-0.1819096 0.1260727 0.01249472
-0.1797974 0.05768203 -0.03979182
-0.1671826 0.09428209 0.05736077
-0.1923286 0.1001851 -0.05559323
-0.1975039 0.09965631 -0.03997361
-0.1936401 0.07033162 -0.01014775
-0.1941829 0.1119578 -0.05446266
-0.1501844 0.05748394 -0.02262499
-0.2022214 0.1355399 0.02313832
-0.1673945 0.09472947 0.04406552
-0.1674455 0.09479871 -0.007264478
-0.1987936 0.1095099 0.03164451
-0.1430251 0.04082291 -0.01124402
-0.1843885 0.0743774 -0.05139663
-0.1624575 0.0578546 -0.04066175
-0.178984 0.1197186 -0.02727274
-0.2010349 0.1265112 0.002487584
-0.1755476 0.1123269 0.01623021
-0.1941234 0.07541572 -0.03833513
-0.1734594 0.1078221 0.02646351
-0.1597925 0.07827708 0.01419193
-0.1886704 0.05074416 -0.01115333
-0.1754053 0.0429202 -0.01315097
-0.1615736 0.08208721 -0.03477097
-0.1853845 0.0559007 0.03332851
-0.1742522 0.1095459 0.03957172
-0.1786052 0.1189422 0.02579672
-0.1965524 0.09245384 -0.009024221
-0.1980273 0.1036768 0.01616155
-0.1779573 0.117485 -0.04578007
-0.1997804 0.1169527 -0.03445423
-0.1981289 0.1216183 -0.04929236
-0.1559838 0.07006236 0.03457691
-0.2000187 0.1187989 0.01097824
-0.07999982 0.1337225 -0.04648409
-0.07784627 0.1568332 0.008900368
-0.1334485 0.0439632 -0.01759575
-0.09793781 0.1126027 -0.05636448
-0.09811185 0.1233176 0.05258505
-0.1127174 0.1070484 0.05738623
-0.08334202 0.09120327 0.05740209
-0.1248817 0.04262478 0.01275498
-0.1560867 0.1520951 0.05422139
-0.1269867 0.1696483 -0.01342167
-0.1023737 0.0960049 0.05780225
-0.1147778 0.1696213 -0.0473565
-0.1255077 0.1348011 -0.05705844
-0.09296688 0.1696662 0.00909734
-0.1295417 0.08715026 0.05662719
-0.1272702 0.1603907 0.05731277
-0.1370683 0.0759638 -0.05302217
-0.08224241 0.04210762 0.009990276
-0.1002116 0.1696833 0.03044166
-0.1314895 0.05039676 0.03121047
-0.1018713 0.04970181 0.0301182
-0.1930771 0.1641757 -0.009047146
-0.09420107 0.1610945 -0.04038639
-0.09497159 0.08430142 -0.05594765
-0.1464361 0.1697001 0.05161558
-0.1514544 0.06024299 -0.004349797
-0.09926105 0.04135355 0.00435546
-0.1907546 0.1647371 0.01859759
-0.08125428 0.1191805 0.05439421
-0.1392551 0.1327727 0.0578286
-0.1492641 0.08175656 -0.05521378
-0.1234881 0.1495196 -0.05668069
-0.1042041 0.06820855 -0.04899734
-0.1435266 0.08798573 0.05679919
-0.1538794 0.07846621 0.05407294
-0.106201 0.05183121 -0.0333899
-0.1301881 0.1007828 -0.05797295
-0.0934696 0.04148411 -0.005088693
-0.1477327 0.1583529 0.05666352
-0.1070149 0.1522807 -0.05027623
-0.1588137 0.08948717 -0.05707031
-0.123848 0.1696365 -0.02831008
-0.07966303 0.1683447 0.01394335
-0.1098048 0.06139961 0.0439358
-0.1101063 0.1181616 -0.05523917
-0.1374965 0.1000409 0.05799318
-0.1280521 0.1081975 0.05785068
-0.1804839 0.1510102 0.03667211
-0.080777 0.07476238 -0.05256569
-0.1833926 0.1694718 0.03313641
-0.1308782 0.06665373 0.04790876
-0.1693555 0.1520675 0.04707219
-0.1019428 0.04614479 -0.02308401
-0.07124952 0.07852042 -0.0539686
-0.1614424 0.1678108 -0.05197822
-0.1495486 0.1268691 0.05625213
-0.1170181 0.05374563 0.03595338
-0.09022073 0.1593735 0.035703
-0.1660455 0.1056052 -0.05761659
-0.110325 0.1193276 0.0549499
-0.08297777 0.05851755 0.04122014
-0.1856729 0.1342004 0.005927422
-0.1207556 0.120147 0.0564446
-0.07444371 0.1134475 -0.05603198
-0.08995503 0.06119843 -0.04374929
-0.07516029 0.07569043 0.05289559
-0.09223647 0.1400329 0.04170564
-0.1598163 0.1637548 0.05275783
-0.102545 0.1430956 0.04713828
-0.1714024 0.1033951 0.04933666
-0.09152947 0.1100067 0.05694795
-0.09160136 0.0486006 -0.02815381
-0.09732203 0.1626942 0.0432752
-0.08096376 0.08729665 -0.0566376
-0.1703212 0.1606605 -0.04668543
-0.1799009 0.1629512 -0.0375958
-0.1737244 0.1274228 -0.05051637
-0.1455038 0.1302407 -0.05717571
-0.1291149 0.1267118 0.05749984
-0.1539762 0.1600892 -0.05510553
-0.1080922 0.1625498 -0.05090958
-0.08457886 0.05437381 -0.03662781
-0.0835285 0.04130417 -4.654309E-05
-0.1116587 0.07972968 -0.05447695
-0.08170139 0.1536608 -0.02214158
-0.07905857 0.1624745 -0.01174374
-0.07902516 0.1429617 0.037823
-0.1499318 0.1449896 -0.05626568
-0.1466385 0.06094868 -0.04349563
-0.1219113 0.119812 -0.05673693
-0.1232159 0.06195835 -0.04439703
-0.08496255 0.04329006 -0.01502051
-0.1317064 0.04138784 -0.003873006
-0.1153776 0.1479804 0.05411098
-0.1193205 0.3256267 -0.04740221
-0.08857941 0.3780799 -0.01663607
-0.1740814 0.2911953 -0.0325182
-0.115184 0.2230888 0.04546817
-0.1372874 0.2532778 -0.05013523
-0.1665127 0.3849203 0.03941151
-0.1646663 0.3071856 0.04074956
-0.1603865 0.3090553 -0.04379097
-0.08905035 0.3964909 0.01755842
-0.09146909 0.2629148 0.02308002
-0.163263 0.2068172 -0.04198337
-0.1758455 0.2078264 0.03004543
-0.08586493 0.2722656 0.002339611
-0.1463478 0.2925932 -0.04912945
-0.1832222 0.2977937 -0.01648998
-0.1205623 0.2048276 -0.04774415
-0.08577019 0.3419368 -0.001506256
-0.1277536 0.2072548 0.04928564
-0.08544944 0.442926 -0.009471035
-0.09101371 0.2887679 -0.02236847
-0.1784922 0.2683754 -0.02632766
-0.1858939 0.2591574 0.002263323
-0.1458219 0.4095613 -0.04930932
-0.1490148 0.2488506 0.04822003
-0.1419328 0.1860645 0.04961983
-0.08790119 0.2739106 0.01416147
-0.1155693 0.2828844 -0.04594564
-0.155859 0.3546073 0.04573191
-0.1198298 0.3307979 0.04724781
-0.1541154 0.1805434 0.04762879
-0.1129341 0.1872593 0.04450586
-0.09268598 0.4119711 0.02504948
-0.1823786 0.2309113 -0.01853623
-0.1187678 0.4093875 0.04686929
-0.1530772 0.3337498 0.0467888
-0.1135167 0.24043 -0.04488251
-0.09998116 0.4094374 0.03463417
-0.0870134 0.2318282 -0.01098016
-0.1622051 0.2391299 0.04245338
-0.09427713 0.1801094 0.03031209
-0.1577963 0.2299126 0.04485974
-0.1455679 0.4332359 0.04882048
-0.1093939 0.3207029 0.0422958
-0.105732 0.4159322 -0.04029534
-0.1297152 0.323498 -0.04986313
-0.1497889 0.3175722 -0.0482252
-0.1224026 0.3630614 -0.0484882
-0.08842774 0.3200744 0.01598161
-0.1853442 0.3789212 0.007609485
-0.08788624 0.3503899 0.01404781
-0.09603599 0.3859723 -0.03062459
-0.1679478 0.2723132 0.03825228
-0.1770395 0.4115188 0.02815036
-0.1738791 0.4376821 -0.03289918
-0.1791121 0.2528546 -0.02525164
-0.1839701 0.3948399 0.01374792
-0.1719377 0.1975923 0.0346227
-0.1850119 0.3597251 0.009252036
-0.1013196 0.2081276 0.03615016
-0.133997 0.2482157 0.0498781
-0.08599065 0.1955284 0.004832199
-0.1643964 0.2660893 -0.04133109
-0.08844052 0.3304242 -0.01622002
-0.1184856 0.3612677 0.04681218
-0.1115922 0.4482373 -0.05123864
-0.0865511 0.2175546 -0.00896128
-0.1084829 0.262581 0.04179542
-0.1525317 0.3634505 -0.0474457
-0.1641345 0.3328486 -0.04156066
-0.0980071 0.2673649 0.03273965
-0.1698553 0.4151313 -0.03701987
-0.1747882 0.3056462 0.03134501
-0.1415688 0.3616726 -0.04997289
-0.1356085 0.1756132 0.0559431
-0.184491 0.2113549 0.01163215
-0.1077563 0.4043286 0.04124649
-0.1599293 0.2956994 -0.04405471
-0.1920148 0.1731455 0.00994785
-0.1027327 0.2897434 -0.03765516
-0.1827783 0.3532252 0.01714197
-0.107521 0.1832599 -0.04130917
-0.1298777 0.2376043 -0.04980908
-0.1689767 0.3752879 0.03727485
-0.1858378 0.2940822 -0.002498525
-0.1160018 0.3899349 0.04569549
-0.09007256 0.1918949 -0.02047323
-0.1892175 0.1773728 -0.009199147
-0.157398 0.2581344 0.04503698
-0.1417452 0.2225575 0.04960731
-0.1563634 0.3014791 0.04552127
-0.1602317 0.2782761 0.04359994
-0.08735587 0.292774 -0.01251579
-0.08794724 0.3076643 0.01429697
-0.1853723 0.4222634 0.007296801
-0.1117577 0.434913 -0.04415534
-0.1749029 0.2208217 0.03128411
-0.09343258 0.283891 0.02643262
-0.179424 0.2022903 -0.02467612
-0.1382955 0.4103179 0.04976158
-0.1374334 0.3760611 0.04986475
-0.1370147 0.2067024 -0.05010847
-0.1542151 0.3988532 -0.0468185
-0.1682841 0.2108011 0.03800858
-0.08702758 0.446282 -0.02474031
-0.1167921 0.296284 0.04611811
-0.08007976 0.175796 -0.0003372338
-0.1147323 0.2852782 0.04521975
-0.184933 0.2155313 -0.01011227
-0.100259 0.2770638 0.03502104
-0.100456 0.3773294 0.03514073
-0.08575902 0.2548442 -0.002054328
-0.1144743 0.3003753 -0.04541047
-0.185929 0.3446459 0.00110771
-0.1759972 0.3787504 0.02968924
-0.09293091 0.2446864 0.02560296
-0.1411087 0.3809918 -0.05006418
-0.1570334 0.3431531 0.04515214
-0.1303267 0.2894896 0.04964468
-0.1715638 0.2577369 -0.03516392
-0.1841559 0.2560698 0.01305169
-0.1654507 0.4380954 0.0401196
-0.1623123 0.4171888 0.04223976
-0.1261134 0.2403902 0.04898865
-0.09170418 0.3528576 -0.02375335
-0.1068834 0.1982986 0.04078944
-0.1202576 0.4321509 0.04729442
-0.1590589 0.4225983 -0.04467802
-0.08719479 0.2368177 0.01169985
-0.1666428 0.3192032 -0.03960769
-0.1782123 0.3482893 -0.02687165
-0.1751009 0.3571826 -0.03123879
-0.1190017 0.3458731 0.04698945
-0.1062391 0.2051338 -0.0404674
-0.1367553 0.340715 -0.05022499
-0.1177439 0.4141766 -0.04691653
-0.1119574 0.4378439 0.04374096
-0.1371894 0.2986312 -0.05017504
-0.1669168 0.2249272 -0.03931727
-0.1848488 0.3313484 -0.01075883
-0.1743472 0.1817093 -0.03242853
-0.1783869 0.3347582 0.02625613
-0.1453319 0.3503649 0.04893763
-0.1241776 0.3146972 -0.04883448
-0.08696663 0.3113579 -0.01084038
-0.1858796 0.2696938 -0.0008070623
-0.1841123 0.4100692 0.01311853
-0.08640848 0.3292471 0.007478209
-0.1077814 0.3270676 -0.04159818
-0.1395836 0.1966561 0.04981825
-0.1125108 0.3756745 -0.0444858
-0.1421957 0.2111773 0.0495767
-0.08622184 0.3279726 -0.006694229
-0.1674318 0.3543223 0.038636
-0.1285895 0.3491888 -0.04978446
-0.09354993 0.2980169 -0.02694653
-0.1828112 0.1801502 0.02110015
-0.1027215 0.1866211 0.03752733
-0.1176722 0.1855329 -0.04670921
-0.0976743 0.3080112 0.03227251
-0.1837848 0.2319416 0.01449824
-0.0973493 0.4319655 0.03174925
-0.1680476 0.2827901 0.03815702
-0.1849928 0.415296 -0.009877355
-0.08583394 0.3915674 0.001005025
-0.1773015 0.2775633 0.0278768
-0.1312003 0.3914531 0.0496582
-0.1708201 0.3993673 -0.03602999
-0.1466246 0.2779387 0.04871503
-0.1402196 0.266448 -0.0500347
-0.179846 0.4333104 0.02357361
-0.1722398 0.3314372 -0.03453783
-0.1733086 0.3646175 0.03295476
-0.1785939 0.389781 -0.02624981
-0.1836603 0.345405 -0.01498316
-0.0923987 0.2994267 0.02464613
-0.09585378 0.3572398 0.02985494
-0.178762 0.4235137 0.02564096
-0.08420365 0.1749428 -0.02313766
-0.1105376 0.3409706 0.04296602
-0.09167179 0.2381512 -0.02359946
-0.1696332 0.2395424 -0.03710502
-0.140993 0.2780537 -0.0500013
-0.09915681 0.4032957 -0.03426586
-0.1818146 0.2186753 -0.01985305
-0.1833515 0.3720031 0.01556646
-0.09531569 0.2116993 -0.02944047
-0.08841544 0.4275845 0.0158526
-0.133535 0.4202184 0.04972369
-0.1096922 0.3934553 -0.04293173
-0.118922 0.2251605 -0.04718169
-0.09639812 0.4217526 -0.03117862
-0.1429424 0.3366911 0.04941103
-0.1330263 0.2331976 0.04985331
-0.1247723 0.4340954 -0.04905849
-0.1030569 0.441941 0.03802427
-0.1529339 0.3288833 -0.04729855
-0.1811495 0.3657333 -0.0215348
-0.1332576 0.406359 -0.05024099
-0.1265788 0.2148995 -0.0492756
-0.08750947 0.4063814 -0.01327321
-0.1770241 0.5732452 0.030061
-0.1917873 0.5663803 0.002727233
-0.2000585 0.5042547 0.03679299
-0.1980986 0.5191458 0.0418408
-0.1936659 0.5527799 -0.002860277
-0.1939037 0.5509825 0.00845415
-0.1948575 0.5437549 0.03036629
-0.1995657 0.5079901 0.02698347
-0.1971243 0.5265268 0.01753818
-0.2034399 0.4785227 -0.02357791
-0.174589 0.5733922 -0.03092667
-0.1783333 0.564684 -0.04152862
-0.1733268 0.5818559 0.004996488
-0.1733777 0.5442421 0.05405059
-0.2004087 0.5015424 -0.02881597
-0.201087 0.4820511 0.03535834
-0.1925837 0.5516232 -0.04050805
-0.1889929 0.5688686 0.02253692
-0.1609598 0.5629348 0.04276676
-0.2011503 0.4959292 -0.003902887
-0.2013613 0.4690587 0.01520225
-0.1945525 0.5428052 0.04268113
-0.1932335 0.5560864 0.02503437
-0.1952057 0.5410885 0.00348161
-0.1668932 0.5296826 -0.03070263
-0.1971942 0.5259577 -0.03016015
-0.2029422 0.4823385 0.0212791
-0.1922666 0.4961364 0.05033078
-0.1758781 0.5779344 0.02076007
-0.1967808 0.5291448 0.02859544
-0.178971 0.5610951 0.04411901
-0.1943972 0.492687 -0.04869917
-0.1860682 0.547863 0.05088264
-0.1593919 0.5459206 0.003194462
-0.189622 0.5558708 0.04145658
-0.2025112 0.4856039 0.01037499
-0.192399 0.5577461 -0.03228438
-0.1808421 0.580079 -0.004284004
-0.1992093 0.5106893 0.01667454
-0.2017087 0.4844529 -0.03651136
-0.1609459 0.5787004 0.01933526
-0.1800413 0.5783634 -0.01651167
-0.1800282 0.5415578 -0.05564301
-0.1973179 0.5250446 0.002950372
-0.1957204 0.5371903 0.01736417
-0.1940153 0.5501162 -0.01466006
-0.2039238 0.4748556 -0.01291672
-0.1622311 0.5816205 -0.008069382
-0.2032977 0.4796231 0.001799659
-0.2010989 0.4664943 0.0002951704
-0.1957593 0.5368639 -0.02192494
-0.1706964 0.553807 0.04948625
-0.1992481 0.5092268 0.04630575
-0.1688737 0.5687847 0.03663203
-0.195499 0.538291 -0.0431966
-0.1545107 0.5821097 0.001736
-0.1595036 0.5726469 -0.03215009
-0.1546241 0.5561949 -0.03346212
-0.1508636 0.5643609 0.01583656
-0.1932795 0.5321087 0.0522103
-0.1851015 0.4903331 -0.0304746
-0.1973882 0.5244991 -0.01204486
-0.2015185 0.4931659 0.03797385
-0.1920395 0.5210655 0.05564084
-0.201231 0.49529 -0.03719161
-0.1960042 0.5350115 -0.01164497
-0.1659678 0.5617481 -0.04445812
-0.2011241 0.4961501 0.02363069
-0.1827205 0.5778579 0.01240636
-0.1767376 0.5083954 -0.0466411
-0.1580665 0.5778478 -0.02223864
-0.190546 0.4786159 0.03075158
-0.1523172 0.5692307 -0.03915208
-0.1739596 0.5144362 0.0004541116
-0.1989675 0.5124986 -0.01773962
-0.1581628 0.5485858 0.0145186
-0.1481849 0.5772846 -0.02708518
-0.1952212 0.540942 -0.03310814
0.01510426 0.9238249 -0.03741922
0.04104997 0.9028366 -0.01043548
0.01612101 0.8954115 -0.00291146
0.01304248 0.9024228 0.01537288
0.009651139 0.9330653 -0.03432207
0.006710321 0.9167986 -0.004095934
0.0273241 0.8803513 0.01304039
0.000956893 0.9298924 0.01836239
0.02255739 0.8946438 0.0297533
-0.003489047 0.94777 0.02233842
0.04093195 0.9311993 0.01745154
0.03884511 0.9405473 -0.01655979
0.01442562 0.9290854 0.03467759
0.02404727 0.951913 -0.01311913
0.02005622 0.8864648 -0.00666837
0.01454215 0.9418876 0.02701837
0.03071877 0.9032258 0.03433013
0.0394347 0.9116881 -0.03155018
0.03649947 0.8818064 -0.01202777
0.04102589 0.9258851 -0.02184244
0.037008 0.9322414 0.02784946
0.01233786 0.9040354 0.02952162
0.008990616 0.951353 -0.01469001
0.0002143234 0.9315543 -0.01386574
0.006342575 0.9176584 0.02616982
-0.001261637 0.9401838 0.03001844
0.03717862 0.8892654 0.02239081
0.02224632 0.9130273 -0.03795544
0.02096899 0.9341197 -0.03377714
0.02612706 0.9020391 -0.03518735
0.02502041 0.9485849 0.01880002
0.015141 0.8976293 -0.01490216
0.01624393 0.8951415 0.008803394
0.008695915 0.9122729 -0.02014363
0.03528388 0.9367197 -0.02786669
0.03995991 0.9405785 0.009329974
0.04032917 0.8990825 -0.0261284
-0.0013372 0.9350988 0.009028595
-0.0003118068 0.9530109 -0.009491033
0.02543436 0.8779339 -0.003168119
-0.004277021 0.941753 -0.02504228
0.02009544 0.8863987 0.02209548
0.03411201 0.919485 0.03505065
-0.006728873 0.9473431 -0.002788597
0.03017545 0.8937036 -0.03032666
0.03926416 0.8837276 0.00940653
0.006959364 0.9540632 -0.001706818
0.01994409 0.8867091 -0.02006751
0.04035571 0.9215332 0.02681896
0.001526058 0.9522403 0.01092855
0.02675186 0.9422147 -0.02781418
0.002622485 0.9260697 -0.02836733
0.03605029 0.8796822 -0.0007867859
0.01296729 0.9180707 0.03681592
0.001627088 0.9283789 0.03057024
0.01287647 0.9442233 -0.02593319
0.0165052 0.9514489 0.01314087
0.002597868 0.9261446 -0.004559054
0.009991631 0.9093151 -0.03665522
0.02728732 0.9291253 0.03465369
0.005747288 0.9190012 0.01355897
0.02472307 0.9539902 -0.001168381
0.03053175 0.9511459 0.009125162
0.02596641 0.9396683 0.0288452
0.005013898 0.9248639 -0.03844686
0.01138143 0.6922119 0.02485005
-0.02507144 0.8710896 0.0001431527
-0.03240474 0.7165729 -0.03422668
-0.0400355 0.6528536 -0.02922279
0.0202543 0.6944023 -0.008983187
-0.02610991 0.8643756 0.03539982
0.01276459 0.7292109 -0.02424733
-0.03241497 0.8557353 -0.03433354
-0.0519529 0.7992561 -0.01142867
0.0162334 0.676576 0.01838109
0.005995557 0.7955796 -0.03060223
0.01663215 0.8447114 -0.01857394
-0.04975398 0.8457228 0.01600177
0.02052404 0.8505015 -0.007537263
-0.01262912 0.7978507 -0.03779629
-0.05067959 0.8143488 -0.01476815
-0.02344008 0.75047 0.03609475
-0.02375927 0.7268101 0.03604135
0.00908874 0.6491641 0.02705983
-0.05161773 0.8103514 0.01117412
0.00160864 0.5988864 0.03252407
0.0006097108 0.8175102 0.03296923
0.02004378 0.6838961 -0.01020022
-0.05084378 0.6839225 -0.0142956
-0.02663947 0.5981477 -0.01474591
0.02109703 0.7297888 0.002747101
-0.02993619 0.8262358 0.03413432
0.01272519 0.7455748 0.02328975
0.006617457 0.828923 0.02918085
-0.02604946 0.7438644 -0.03667885
0.01079932 0.5981785 0.02389972
-0.02962445 0.7804222 0.0343096
-0.01630072 0.8127837 -0.03790445
0.01788394 0.6125997 0.01490292
-0.02645915 0.6191319 0.03551605
-0.006373465 0.735086 -0.03655702
0.002730131 0.756268 0.03169122
-0.02984169 0.8073034 -0.03528266
-0.02223747 0.6550317 -0.03726298
0.007967576 0.8710728 -0.02105681
-0.04012045 0.7829645 -0.02924577
0.01845559 0.8315448 -0.01456973
0.02123354 0.6010485 -0.002356028
-0.04937547 0.753287 -0.01764835
0.01398407 0.7056557 -0.02266056
0.02021144 0.7656946 -0.009289365
-0.0448276 0.8201419 0.02342131
-0.03265626 0.5981344 -0.03147158
-0.01110429 0.6883751 0.03653012
-0.04024808 0.7029479 0.0281869
-0.007299781 0.7651376 0.03581542
0.01439098 0.6379588 0.02101859
-0.05243152 0.6932563 -0.00922947
-0.05339304 0.711333 -0.003889607
0.02067891 0.8009204 -0.006596296
-0.0419604 0.6748787 0.02655861
-0.04585378 0.5981675 0.01012163
-0.04397169 0.862152 -0.02565443
-0.0338989 0.8111842 0.0323818
-0.05015118 0.8239806 0.01498419
0.01330876 0.6801709 -0.02363479
-0.05301411 0.6528375 -0.006623098
-0.02731397 0.6916606 -0.03616077
0.006779358 0.860851 -0.03010023
-0.01524007 0.7689952 -0.03784176
-0.04128012 0.667456 -0.02805341
-0.01947566 0.7766092 0.0367056
0.02079429 0.8608217 0.005221329
0.01938148 0.6904906 0.01147773
-0.05165264 0.6517621 0.01120942
-0.05286407 0.640283 -0.00727604
-0.04927075 0.6410663 -0.01779419
-0.05346695 0.756667 -0.001107847
-0.04877101 0.620777 -0.01890035
0.01069821 0.7693456 -0.02645694
0.02124558 0.6432112 -0.00284842
0.01798803 0.6478428 -0.01564168
-0.008568302 0.7114781 0.03607607
-0.04997373 0.7074717 -0.01626831
0.02034536 0.7105303 -0.008465905
-0.04812182 0.7895156 -0.01997293
-0.01285353 0.6399887 0.03686915
0.006905958 0.7482047 -0.02992105
-0.02448265 0.8711027 0.01657188
-0.0342548 0.8547603 0.03218862
-0.01405359 0.8327779 0.0368031
0.007856026 0.6038316 -0.0291346
0.02018711 0.7330302 -0.009405009
-0.01101866 0.6836982 -0.03756739
-0.02543895 0.636423 -0.03669818
0.001101643 0.6532429 -0.03361138
-0.00590685 0.6012857 -0.03634488
0.00139156 0.6982607 0.0325819
-0.02580391 0.7876375 -0.03675587
-0.04759783 0.7050461 0.01961283
-0.005271882 0.8619982 -0.03640875
-0.006474346 0.8011518 0.03564495
-0.008734494 0.6681439 0.03613912
-0.05289026 0.7319019 0.006049796
-0.0430395 0.6062496 0.02547603
-0.04080524 0.6194017 0.02782016
-0.03440007 0.7384186 -0.033121
0.01469134 0.7570356 -0.02158043
0.009067908 0.796313 0.02696243
-0.05279162 0.6141989 -0.007575408
0.003023222 0.7660042 -0.03267951
0.01872602 0.7719322 0.01288492
0.01177348 0.612331 -0.02519876
-0.05351694 0.8306658 0.0007394067
-0.05212669 0.8603126 -0.0107094
-0.03616545 0.7960736 0.03099831
0.01644519 0.8322699 0.01795747
-0.05010239 0.6061876 0.01528472
-0.05318168 0.7693574 0.004323671
-0.03822319 0.6585479 0.02965342
0.007702723 0.8453319 0.02821882
0.01345286 0.8592899 0.02216964
-0.0174739 0.6739998 -0.03782472
0.0003109574 0.6770871 0.03319569
0.01279493 0.7864524 0.02315852
-0.03814508 0.7600522 -0.03077552
-0.03819773 0.7196577 0.02962277
0.02002887 0.7093488 0.008723944
-0.04614433 0.8644979 0.02178975
0.01221043 0.7181686 0.02403985
0.01998626 0.6029851 0.008996915
-0.02500158 0.6083713 0.03585449
-0.02407983 0.7041966 -0.03698562
-0.01437731 0.8569802 -0.03788921
-0.0457992 0.6009486 -0.02310896
0.01673645 0.8569976 -0.01841841
-0.03244932 0.8365083 -0.03430506
-0.03767716 0.6838639 -0.03101007
-0.01144011 0.6582054 -0.03764248
0.01868992 0.6061997 -0.0137798
0.02112566 0.8291533 0.00157603
0.0174735 0.7218282 -0.01704109
0.004624322 0.7312475 -0.03152019
0.01985201 0.7847018 0.009445439
0.01776953 0.6222998 -0.01619059
0.003342062 0.6329509 -0.03234822
-0.01377609 0.7457039 0.0368797
0.004909545 0.7462475 0.03032421
-0.0280296 0.6925637 0.03508972
0.01703338 0.7944033 -0.01789793
-0.03018257 0.7650539 0.03407333
-0.05350608 0.8033628 0.0003473102
-0.0534119 0.8187835 -0.003256356
-0.003401756 0.8307364 0.03449835
-0.00564447 0.8603649 0.03533557
-0.004626796 0.8464775 -0.03625039
-0.05259328 0.671767 -0.008497611
0.02054642 0.7394887 0.00641317
-0.009076253 0.623644 -0.03707997
-0.05083088 0.7338313 -0.01436431
0.02118228 0.8691429 -0.0006148095
0.008019358 0.8661178 0.02790181
-0.04972807 0.6776173 0.01620313
0.006730586 0.6901177 -0.02999874
-0.04589642 0.8457673 -0.02316633
-0.05158165 0.6035721 -0.01257453
0.007066652 0.7829175 -0.02983511
0.01969448 0.6729766 -0.01121568
-0.03187989 0.6441652 -0.03437047
-0.03173568 0.6176676 -0.03440473
-0.01508689 0.642946 -0.03773741
-0.05119013 0.7403945 0.01234387
-0.05095187 0.7882167 0.01292656
0.01603056 0.8080286 -0.01949829
0.02095491 0.8481762 0.004521715
-0.04696946 0.7630099 0.02056269
-0.04376476 0.7689617 -0.0257766
0.01584777 0.818747 0.01881349
0.008540735 0.8091389 0.02745245
-0.0530947 0.618348 0.004950193
0.01691075 0.7246252 0.0169993
-0.001301929 0.7787873 -0.0347816
0.0208106 0.6294469 0.005333466
-0.0143123 0.6075306 -0.03768889
-0.04748279 0.8257736 -0.02090594
-0.05183762 0.7241962 -0.01187827
0.01284952 0.620339 0.02321353
-0.02061093 0.952329 0.01048118
-0.0169392 0.954004 -0.0005988101
0.004026979 0.8791375 0.03092526
-0.05767061 0.9008262 -0.034645
-0.06365 0.9253366 -0.02629465
-0.0478534 0.9526726 0.009432192
-0.01109015 0.8994803 0.03645229
-0.0628697 0.9499313 0.01624838
0.0007866174 0.9191808 0.03665759
-0.00883016 0.9022247 -0.03747465
-0.02385151 0.9099041 0.0366423
-0.04969464 0.8808523 0.0159372
-0.008180559 0.9506558 0.01398929
-0.01734865 0.9281492 0.03498975
-0.02910642 0.8962902 -0.03575674
-0.06084377 0.8853064 -0.02102352
-0.04372706 0.8859398 0.02459639
-0.03271718 0.9430298 -0.0271004
-0.02141797 0.8836894 0.03647083
-0.05298418 0.8908995 0.02654771
-0.01209348 0.9396509 0.02886313
0.006477147 0.890017 -0.0305178
-0.05631667 0.9083966 0.03593155
-0.04414907 0.9411561 0.02760111
-0.01495788 0.9454192 -0.02454091
-0.04675946 0.9408417 -0.02918584
-0.01833475 0.9142123 -0.03810146
-0.004984587 0.8871957 -0.03637898
0.0002772361 0.8994465 0.03389123
-0.0140402 0.9333856 -0.03412601
-0.06147835 0.9293551 -0.03571327
-0.06225313 0.8962405 0.03065629
-0.006522238 0.8811922 0.03555628
-0.06026834 0.9404428 -0.02942555
-0.03950079 0.9045689 0.03478917
-0.05816597 0.9242928 0.03596914
-0.02618063 0.9485152 -0.0201273
-0.03170457 0.8863585 0.03343047
0.004442826 0.9219406 -0.01845843
-0.01289474 0.9165431 0.03684888
-0.04971653 0.9484338 -0.02026656
0.01670483 0.8765689 -0.01849809
-0.008549735 0.9225422 -0.03761173
-0.05126865 0.8826977 -0.01678165
-0.05047512 0.8907043 -0.02761384
-0.03450479 0.9533731 0.006529782
-0.03466909 0.9202981 0.03659802
-0.01750585 0.9472982 0.02083333
-0.06354333 0.948312 -0.02029683
-0.009772673 0.9507949 -0.01591307
-0.026063 0.8862218 -0.03673351
-0.05617414 0.953837 0.003388695
-0.03066639 0.9503435 0.01560781
-0.04840522 0.9003237 0.03305434
-0.05261838 0.947108 0.02111916
-0.04960659 0.9067956 -0.03678363
-0.06345148 0.8793185 -0.003498418
-0.03745404 0.9521608 -0.01234217
-0.04610463 0.5276767 0.05630726
-0.05421104 0.473871 0.02812429
0.003778204 0.5071046 -0.01007849
-0.06611066 0.4708023 0.02236311
-0.02311666 0.5835234 -0.03946812
-0.05358855 0.5783347 0.02285994
-0.03065235 0.4904603 0.03890903
-0.02289524 0.5324415 -0.04956011
-0.01063211 0.5058194 -0.03451456
-0.01361286 0.493668 -0.02715384
0.0168407 0.563393 -0.02124942
-0.02348576 0.5102059 0.04601332
0.01973669 0.5478293 -0.006080473
-0.009435862 0.5903699 0.03827696
-0.00902237 0.490588 0.01207761
-0.001027361 0.5177863 -0.03095407
0.01853596 0.5941616 -0.01813039
-0.004841954 0.5018504 0.02284655
-0.0385376 0.5698112 0.03872137
-0.01311626 0.5167536 -0.04196371
0.0001962781 0.5025302 0.0121279
-0.05468407 0.5977792 -0.002001974
-0.02771176 0.5535647 0.04607684
-0.0191625 0.5435923 -0.04710236
-0.002439275 0.4965854 -0.005647394
-0.04776756 0.5117363 0.05535535
-0.06259646 0.4933678 -0.04937248
-0.04556341 0.4876934 -0.04368096
-0.02422669 0.5269785 0.04946359
-0.06296898 0.5011302 0.05283303
-0.01330273 0.5295391 0.04395253
-0.03222527 0.5697435 -0.04086094
0.0001716167 0.5498618 0.03655935
-0.05368178 0.5821916 -0.01728374
0.01972541 0.5512618 0.009147889
-0.04716148 0.5532178 0.04889177
-0.0297134 0.4820085 -0.02934499
0.008856535 0.5398777 0.02680207
-0.02124506 0.4783897 0.005489798
-0.006416231 0.5535387 -0.04100303
-0.01962327 0.4809581 -0.01303158
0.01636311 0.5334297 -0.001430169
-0.05744469 0.4672104 0.01039813
-0.06772811 0.5469177 -0.05364512
0.02293889 0.5711149 -0.005400694
-0.03563732 0.501276 -0.04903081
-0.06787547 0.4673577 0.01091005
0.006162122 0.5126171 0.01176658
0.02218787 0.5605291 0.002293433
-0.05465746 0.5391043 0.05551005
-0.03224035 0.4740188 0.01487212
0.004105955 0.5194939 0.0239817
-0.001784578 0.5406125 -0.03806475
-0.01254217 0.4852343 -0.00506791
-0.05904306 0.4782786 -0.03581123
-0.06411952 0.5678217 0.03765132
-0.04670895 0.5868958 0.02477261
-0.03038473 0.5168575 0.05112224
-0.04886705 0.5137111 -0.05658717
0.01244524 0.5228214 0.002248144
0.01435204 0.5815501 0.02495868
-0.01921233 0.59492 -0.0390973
0.01232257 0.5267531 -0.01264575
0.01134102 0.5834641 -0.02884107
-0.02388156 0.570244 0.04097852
0.0179576 0.5571983 0.0170614
-0.02187655 0.5709991 -0.04158675
-0.02494551 0.4817587 0.02336487
0.009670794 0.5652187 -0.03034387
-0.022508 0.5892314 0.03845155
-0.06828695 0.5816795 -0.007616549
-0.05026577 0.5639418 -0.04224957
-0.01251411 0.5766181 -0.04036324
-0.0332846 0.545459 -0.05037548
-0.03394649 0.5030571 0.04852894
-0.01112006 0.5097468 0.03668969
-0.0592182 0.4664284 -0.005678081
-0.01136407 0.4930968 0.02225035
-0.04267067 0.5757147 0.02960464
-0.04537736 0.5413415 -0.05439424
0.005919114 0.514958 -0.01674438
-0.05873662 0.4709256 -0.02329347
-0.02098943 0.522501 -0.04817481
0.01547706 0.5478936 -0.01973769
-0.0149179 0.4995733 0.03373352
-0.00290665 0.5208547 0.03380294
-0.003591463 0.5627569 0.03843581
-0.007609293 0.5750439 0.03883178
-0.04193262 0.5392593 0.05354317
0.0155841 0.5429115 0.01651915
-0.08569479 0.8831357 -0.0009366155
-0.1383438 0.9522892 0.02267667
-0.1465411 0.9365194 -0.001332252
-0.0957676 0.9639094 -0.001197488
-0.09666462 0.8879303 -0.0210983
-0.131244 0.9347295 -0.03087892
-0.111898 0.9639475 0.02279919
-0.1337276 0.9228472 -0.02890193
-0.1206578 0.9638875 -0.01491462
-0.1241046 0.9241388 0.03367284
-0.1153247 0.9638708 -0.02542817
-0.1294576 0.9638603 -0.03200416
-0.1090624 0.8933589 -0.03763057
-0.1185143 0.9253997 -0.03694968
-0.1004272 0.9533311 0.03572226
-0.06867917 0.9438708 0.02482735
-0.139392 0.9478501 -0.02281738
-0.0739044 0.878823 -0.01319918
-0.07654308 0.885667 -0.02216155
-0.1389253 0.9065758 0.01085359
-0.1264866 0.9023902 -0.03378863
-0.1107655 0.8941406 -0.01737121
-0.145868 0.9621104 0.006156321
-0.1107156 0.9066367 -0.03801799
-0.1320059 0.9295206 0.02893886
-0.06872949 0.922078 -0.03770699
-0.09673183 0.89955 -0.03626623
-0.087239 0.8838321 0.009766323
-0.0760321 0.9520917 0.01664464
-0.08281969 0.9300839 -0.035445
-0.07747668 0.8834138 0.01969126
-0.06922983 0.9536891 0.003159064
-0.1276906 0.9016364 0.01325147
-0.1085947 0.9240528 -0.03815859
-0.1437004 0.9249353 -0.01504413
-0.1058873 0.9639292 0.01126075
-0.1080169 0.935233 0.0367572
-0.1377959 0.9060588 -0.0017626
-0.0667614 0.8921102 -0.0291243
-0.09020281 0.9420123 -0.03292521
-0.06958206 0.9002602 -0.03448531
-0.1460276 0.9449308 -0.007400618
-0.08214206 0.9005867 -0.03454892
-0.1357376 0.9172643 0.02562864
-0.1451855 0.9514031 0.009532481
-0.1410449 0.9247174 0.01888089
-0.1159724 0.896414 -0.02842537
-0.08604976 0.883275 -0.01144395
-0.1006303 0.8928473 0.03582787
-0.1462962 0.9192587 0.003684974
-0.08492684 0.9538519 0.02778332
-0.1465607 0.9567342 -0.002740441
-0.06982669 0.9230902 0.0362334
-0.1238123 0.8999106 0.001067917
-0.1034876 0.8909832 0.01081824
-0.07362168 0.9132553 -0.03799497
-0.1146799 0.916113 -0.03771919
-0.1401051 0.932723 -0.02177207
-0.0752053 0.9383026 -0.03096908
-0.08748789 0.8838775 -0.0305
-0.105916 0.892029 -0.003354032
-0.1125931 0.9475856 0.03657719
-0.09049549 0.9527589 -0.0331523
-0.1113412 0.8944628 0.0259199
-0.1278581 0.9016529 -0.02264976
-0.1318042 0.9408118 0.02908267
-0.1252686 0.9074147 0.03318157
-0.1408182 0.8858002 0.01945693
-0.1316758 0.8749518 0.02937292
-0.08157062 0.8592111 2.511253E-05
-0.07540339 0.8676696 -0.01688305
-0.1355327 0.8607171 -0.004662547
-0.1363276 0.8677011 0.02190321
-0.1012459 0.8720797 0.03606271
-0.1066107 0.8591791 -0.02561571
-0.09245644 0.8592257 0.009222829
-0.07211469 0.8687938 0.005210401
-0.109319 0.8837464 0.03689759
-0.1161553 0.8672026 -0.03606531
-0.0933221 0.8597019 -0.02637698
-0.1353216 0.8774122 -0.02742083
-0.1227747 0.8849057 -0.03552321
-0.1359026 0.8637682 -0.01815638
-0.1210566 0.8736552 0.03495564
-0.1433866 0.8826228 -0.01588352
-0.083859 0.8704665 0.02710083
-0.1439957 0.9007227 -0.01445656
-0.146117 0.8791646 0.005625775
-0.1466097 0.8966937 0.0008691725
-0.09434818 0.8869332 -0.007199017
-0.1016371 0.8655353 -0.03586087
-0.1477919 0.909264 0.001764113
-0.1437127 0.8674425 -0.002514612
-0.08071996 0.8592697 -0.01023585
-0.146334 0.9098046 -0.008631553
-0.1415936 0.873116 -0.01866842
-0.08105712 0.8698186 -0.02540773
-0.09207289 0.8594868 0.02331418
-0.1275487 0.8643519 0.02726864
-0.125764 0.8753543 -0.03418422
-0.1007217 1.044048 -0.01594406
-0.1293252 1.028348 -0.03398684
-0.08091126 0.9660076 -0.02527464
-0.1145645 1.033286 0.02930471
-0.15665 0.9832616 -0.01624584
-0.1453544 1.044991 -0.01675472
-0.105018 0.9790949 0.03649222
-0.1221953 0.9952593 0.03484287
-0.1413149 1.042201 0.02001013
-0.1408867 0.9963224 0.03360468
-0.08449914 1.007205 0.0008369676
-0.1245334 0.9779679 0.03340727
-0.09626667 1.033924 -0.01551056
-0.1237224 0.9655542 -0.004244022
-0.09474918 1.030532 0.02074913
-0.1116123 1.027012 -0.03470752
-0.151019 1.031638 -0.03206569
-0.09093562 0.9760154 -0.03342697
-0.1439173 0.9800053 0.01992154
-0.1525603 1.045305 0.01401581
-0.1036403 1.034665 -0.0298519
-0.1335651 1.045319 0.01433541
-0.07762232 0.9915236 -0.03209936
-0.07734375 0.9909871 0.02850785
-0.1534491 0.9907782 0.03055327
-0.1391288 1.039216 -0.02544386
-0.1347062 1.013282 -0.03817254
-0.1137973 1.007271 -0.03823882
-0.07871 0.9940221 -0.0154284
-0.08854795 1.016414 0.004902616
-0.1442477 1.031326 0.03069248
-0.1535573 1.041355 -0.02269178
-0.11258 1.040431 -0.02393999
-0.08778634 0.9924377 -0.03368651
-0.1324196 0.9896814 -0.0320815
-0.1490809 0.9735955 -0.001441675
-0.1180152 0.9655778 0.01062097
-0.1366309 1.047328 -0.01025212
-0.09138405 1.022836 -0.009418751
-0.07330619 0.9725721 0.01003024
-0.07543075 0.9865963 0.001530431
-0.08754314 0.9914768 0.03170826
-0.1098187 1.045096 0.01473262
-0.08041698 0.9819832 0.02419232
-0.08259836 1.002846 -0.02370228
-0.1039669 1.030712 0.03113621
-0.1041697 0.9836426 -0.03786506
-0.08756223 1.014118 -0.0297169
-0.1506151 0.9912924 -0.03265595
-0.07013533 0.9745504 -0.005285676
-0.1511533 1.019573 -0.03725078
-0.1069254 0.9656128 0.03253493
-0.09789382 1.037657 0.006468279
-0.09070963 1.021357 0.02438402
-0.1129483 1.047948 0.005608835
-0.08032052 0.9977063 -0.0004405858
-0.1434271 0.9683306 0.01430927
-0.1444677 0.9773227 -0.01708341
-0.07436379 0.9841939 0.01569895
-0.05275984 0.9869283 -0.02172142
-0.08546434 1.03314 -0.03110448
-0.05241907 1.016588 0.02570514
-0.05584552 1.031241 -0.02549297
-0.0570091 1.040404 0.01271154
-0.07714856 1.020443 0.03549234
-0.05470447 0.9758481 -0.005215425
-0.06981444 1.043851 -0.01896192
-0.052091 1.010256 -0.02720197
-0.0676514 1.035804 0.02733302
-0.06383222 1.047462 -0.001209509
-0.06378393 1.011483 -0.03822399
-0.09865505 1.048648 0.008540889
-0.08553541 1.00958 0.01322811
-0.06735244 1.02376 0.03447386
